ncols         303
nrows         35
xllcorner     182592.336432
yllcorner     3287402.00371
cellsize      200
NODATA_value  -9999
-9999 -9999 -9999 -9999 -9999 -9999 -9999 -9999 -9999 -9999 -9999 -9999 -9999 -9999 -9999 -9999 -9999 -9999 -9999 -9999 -9999 -9999 -9999 -9999 -9999 -9999 -9999 0.2963821 0.2954862 0.2964159 0.2965443 0.2975932 0.2967971 0.2965016 0.2970508 0.297707 0.296709 0.2985186 0.2988777 0.299004 0.2996685 0.2964967 0.2913423 0.2919585 0.2959087 0.2966192 0.2975163 0.2976771 0.2972119 0.2977659 0.2989814 0.298909 0.2982796 0.2998794 0.2979996 0.2984451 0.2986872 0.2977439 0.300907 0.2994049 0.2993227 0.2991506 0.2992027 0.2982102 0.2990653 0.2984785 0.2973605 0.2981361 0.2973478 0.2977012 0.3011494 0.3 0.2988506 0.2988506 0.2988506 0.2977012 0.3 0.3 0.3034483 0.2988506 0.3011494 0.3022988 0.3034483 0.3034483 0.3011494 0.2988506 0.3 0.2998709 0.2991755 0.2994993 0.299587 0.2998829 0.2990518 0.299666 0.3010506 0.3032829 0.3009658 0.3019582 0.2984571 0.2948403 0.2943721 0.2949655 0.2908032 0.2907357 0.2911979 0.2874549 0.2906673 0.2919745 0.2876348 0.2824383 0.2747127 0.2735632 0.2735632 0.2724138 0.2747127 0.2758621 0.2770115 0.2770115 0.2724138 0.2770115 0.2758621 0.2770115 0.2758621 0.2770115 0.2781609 0.2770115 0.2770115 0.2758621 0.2747127 0.2747127 0.2747127 0.2735632 0.2735632 0.2758621 0.2758621 0.2724138 0.2735632 0.2712644 0.2712644 0.2701149 0.2678161 0.2724138 0.2701149 0.2712644 0.2735632 0.2735632 0.2758621 0.2724138 0.2735632 0.2735632 0.2747127 0.2712644 0.2701149 0.2747127 0.2712644 0.2724138 0.2712644 0.2712644 0.2735632 0.2724138 0.2712644 0.2724138 0.2712644 0.2678161 0.2712644 0.2701149 0.2689655 0.2689655 0.2689655 0.2701149 0.2701149 0.2712644 0.2724138 0.2712644 0.2724138 0.2724138 0.2712644 0.2724138 0.2724138 0.2724138 0.2724138 0.2747127 0.2747127 0.2735632 0.2724138 0.2724138 0.2724138 0.2747127 0.2747127 0.2758621 0.2724138 0.2735632 0.2724138 0.2735632 0.2781609 0.2724138 0.2758621 0.2758621 0.2758621 0.2735632 0.2758621 0.2724138 0.2758621 0.2724138 0.2770115 0.2712644 0.2724138 0.2724138 0.2770115 0.2758621 0.2758621 0.2770115 0.2770115 0.2758621 0.2770115 0.2793103 0.2747127 0.2781609 0.2758621 0.2758621 0.2758621 0.2747127 0.2770115 0.2770115 0.2747127 0.2747127 0.2781609 0.2758621 0.2793103 0.2781609 0.2712644 0.2740039 0.2754897 0.2742187 0.2724854 0.2739734 0.2730992 0.2748705 0.2874545 0.295951 0.2969244 0.2980689 0.3001634 0.2999865 0.3024881 0.3039747 0.3056532 0.3077706 0.3087555 0.3085713 0.3092501 0.3084735 0.3146061 0.310718 0.310724 0.3071183 0.3077822 0.3088835 0.3087043 0.3106939 0.3118124 0.3141346 0.3139983 0.3183908 0.3229885 0.3126437 0.3103448 0.3091954 0.3091954 0.3114943 0.3172414 0.3149425 0.3195402 0.3241379 0.3252873 0.3275862 0.3310345 0.3344828 0.3275862 0.3252873 0.3252873 0.3218391 0.3275862 0.3241379 0.3264368 0.3298851 0.3344828 0.3310345 -9999 -9999 -9999 -9999 -9999 -9999 -9999 -9999 -9999 -9999 -9999 -9999 -9999 -9999 -9999
-9999 -9999 -9999 -9999 -9999 -9999 -9999 -9999 -9999 -9999 -9999 -9999 -9999 -9999 -9999 -9999 -9999 -9999 -9999 -9999 -9999 -9999 -9999 -9999 -9999 -9999 -9999 0.2957847 0.2959936 0.2962161 0.2968504 0.2980731 0.2977711 0.2971774 0.2959079 0.2966826 0.2966286 0.2965566 0.2985041 0.2992761 0.2977422 0.291239 0.2913235 0.2920475 0.2981879 0.2994429 0.2970263 0.2967553 0.2964349 0.2971239 0.297902 0.297814 0.2974747 0.2970002 0.298049 0.2976919 0.2999012 0.299753 0.2992601 0.2977985 0.2998129 0.2999611 0.2993001 0.2969549 0.2991935 0.2980693 0.2977631 0.2997788 0.2982217 0.2988717 0.299334 0.3 0.2988506 0.2977012 0.2977012 0.2988506 0.3022988 0.2988506 0.3034483 0.3034483 0.3057471 0.3022988 0.2977012 0.2988506 0.3 0.2988506 0.3 0.300014 0.2990269 0.2993862 0.3001129 0.3010007 0.3000633 0.3004228 0.3008114 0.3034739 0.3019816 0.2992631 0.295839 0.2893929 0.2894645 0.2946351 0.2965413 0.2943054 0.2903014 0.2838763 0.2847924 0.2862449 0.2847862 0.280421 0.2758621 0.2735632 0.2735632 0.2712644 0.2770115 0.2747127 0.2770115 0.2747127 0.2758621 0.2735632 0.2770115 0.2735632 0.2735632 0.2758621 0.2747127 0.2712644 0.2712644 0.2747127 0.2735632 0.2747127 0.2724138 0.2758621 0.2770115 0.2747127 0.2724138 0.2735632 0.2701149 0.2712644 0.2724138 0.2689655 0.2701149 0.2724138 0.2724138 0.2735632 0.2724138 0.2701149 0.2712644 0.2735632 0.2712644 0.2724138 0.2735632 0.2712644 0.2712644 0.2724138 0.2735632 0.2724138 0.2724138 0.2724138 0.2735632 0.2701149 0.2712644 0.2712644 0.2701149 0.2701149 0.2712644 0.2712644 0.2701149 0.2712644 0.2678161 0.2701149 0.2689655 0.2712644 0.2724138 0.2712644 0.2712644 0.2724138 0.2712644 0.2712644 0.2724138 0.2724138 0.2735632 0.2735632 0.2735632 0.2724138 0.2747127 0.2735632 0.2735632 0.2735632 0.2724138 0.2758621 0.2735632 0.2747127 0.2747127 0.2735632 0.2735632 0.2735632 0.2758621 0.2747127 0.2747127 0.2735632 0.2758621 0.2724138 0.2758621 0.2758621 0.2747127 0.2712644 0.2724138 0.2758621 0.2770115 0.2758621 0.2747127 0.2758621 0.2770115 0.2770115 0.2770115 0.2793103 0.2747127 0.2781609 0.2781609 0.2758621 0.2758621 0.2781609 0.2781609 0.2781609 0.2735632 0.2758621 0.2770115 0.2770115 0.2781609 0.2770115 0.2701149 0.2744551 0.2746535 0.2738562 0.2738796 0.2737918 0.2738436 0.2768631 0.2907814 0.2928821 0.2935569 0.296348 0.2975329 0.2983373 0.298368 0.2995786 0.3010121 0.3027461 0.3037142 0.3061624 0.3036209 0.3050836 0.3064935 0.3024268 0.3060573 0.306611 0.3074567 0.3119819 0.3180617 0.3170962 0.3138832 0.3164647 0.3131094 0.3106546 0.3149425 0.3114943 0.3068965 0.308046 0.3103448 0.3126437 0.3195402 0.3126437 0.3218391 0.3218391 0.3229885 0.3195402 0.3229885 0.3241379 0.3218391 0.3298851 0.3218391 0.3218391 0.3206896 0.3275862 0.3287356 0.3321839 0.3356322 -9999 -9999 -9999 -9999 -9999 -9999 -9999 -9999 -9999 -9999 -9999 -9999 -9999 -9999 -9999 -9999
-9999 -9999 -9999 -9999 -9999 -9999 -9999 -9999 -9999 -9999 -9999 -9999 -9999 -9999 -9999 -9999 -9999 -9999 -9999 -9999 -9999 -9999 -9999 -9999 -9999 -9999 -9999 -9999 0.2968832 0.2963989 0.2973694 0.2978969 0.2971874 0.2968764 0.2955555 0.2966046 0.2970183 0.297304 0.2976154 0.2990735 0.2945597 0.2907783 0.2917243 0.2953378 0.2967145 0.2970596 0.2964023 0.2967553 0.2965394 0.296446 0.2976527 0.296626 0.2975719 0.2977994 0.2984442 0.298509 0.2986446 0.2995081 0.2984762 0.2989172 0.2985923 0.2989342 0.2986387 0.3012465 0.2997771 0.2979152 0.2977503 0.2995951 0.3002254 0.3020234 0.2994964 0.2983183 0.2973394 0.3 0.3 0.3011494 0.3011494 0.3011494 0.3011494 0.2988506 0.3 0.2988506 0.2977012 0.2988506 0.3011494 0.2977012 0.2988506 0.2999584 0.2995758 0.3010837 0.3001972 0.3003137 0.3008067 0.3022169 0.302469 0.2995486 0.3000703 0.2965312 0.296438 0.2887117 0.2885343 0.2962014 0.2976209 0.2957538 0.2840437 0.2840437 0.2808264 0.2836893 0.2780972 0.2758157 0.2735632 0.2735632 0.2770115 0.2735632 0.2758621 0.2770115 0.2758621 0.2747127 0.2770115 0.2735632 0.2747127 0.2747127 0.2758621 0.2724138 0.2747127 0.2735632 0.2724138 0.2724138 0.2747127 0.2747127 0.2747127 0.2724138 0.2758621 0.2735632 0.2735632 0.2735632 0.2735632 0.2712644 0.2735632 0.2712644 0.2712644 0.2701149 0.2724138 0.2747127 0.2724138 0.2689655 0.2701149 0.2712644 0.2724138 0.2724138 0.2701149 0.2701149 0.2724138 0.2735632 0.2724138 0.2712644 0.2701149 0.2712644 0.2724138 0.2712644 0.2712644 0.2724138 0.2689655 0.2747127 0.2724138 0.2701149 0.2689655 0.2701149 0.2712644 0.2689655 0.2701149 0.2712644 0.2712644 0.2724138 0.2712644 0.2724138 0.2701149 0.2712644 0.2724138 0.2724138 0.2747127 0.2724138 0.2747127 0.2724138 0.2735632 0.2712644 0.2747127 0.2735632 0.2724138 0.2735632 0.2747127 0.2735632 0.2735632 0.2758621 0.2758621 0.2747127 0.2724138 0.2724138 0.2735632 0.2747127 0.2724138 0.2747127 0.2758621 0.2747127 0.2724138 0.2724138 0.2770115 0.2758621 0.2770115 0.2747127 0.2770115 0.2770115 0.2758621 0.2781609 0.2781609 0.2781609 0.2747127 0.2770115 0.2770115 0.2770115 0.2781609 0.2758621 0.2758621 0.2770115 0.2735632 0.2781609 0.2770115 0.2758621 0.2781609 0.2724138 0.2724138 0.2753322 0.2726888 0.2735484 0.2741724 0.2757071 0.2730269 0.2763605 0.2907814 0.2907075 0.2923269 0.295226 0.2962106 0.2976047 0.3010778 0.2990329 0.3002034 0.3006754 0.3030596 0.3044588 0.3033987 0.3047128 0.3033427 0.3012523 0.3037191 0.3036781 0.3067119 0.3107719 0.3142711 0.3174739 0.3187253 0.3134443 0.306383 0.3071634 0.308046 0.3057471 0.3045977 0.3114943 0.3137931 0.3183908 0.3172414 0.3172414 0.3172414 0.3195402 0.3229885 0.3275862 0.3333333 0.3229885 0.3252873 0.3218391 0.3252873 0.3264368 0.3264368 0.3287356 0.3356322 0.3390805 -9999 -9999 -9999 -9999 -9999 -9999 -9999 -9999 -9999 -9999 -9999 -9999 -9999 -9999 -9999 -9999 -9999
-9999 -9999 -9999 -9999 -9999 -9999 -9999 -9999 -9999 -9999 -9999 -9999 -9999 -9999 -9999 -9999 -9999 -9999 -9999 -9999 -9999 -9999 -9999 -9999 -9999 -9999 -9999 -9999 -9999 0.2965446 0.2955501 0.2956715 0.2957912 0.2954767 0.2954448 0.2966046 0.2971918 0.2970498 0.2973973 0.2974758 0.292854 0.2932372 0.2935651 0.2960279 0.2963839 0.2963334 0.2965649 0.2974764 0.2967245 0.2983893 0.296966 0.2973722 0.2975135 0.2988427 0.2982135 0.2977226 0.2977308 0.2980795 0.2980038 0.2983493 0.2981154 0.29781 0.2980216 0.3004283 0.2990878 0.2988613 0.2977324 0.2986613 0.300863 0.3011824 0.2990014 0.2993766 0.2976157 0.2995017 0.2988506 0.2977012 0.2988506 0.3011494 0.3011494 0.2977012 0.2965517 0.2988506 0.2988506 0.2988506 0.2988506 0.3011494 0.2986857 0.3003025 0.3003914 0.3004427 0.2996856 0.3001755 0.3013801 0.3001688 0.300389 0.2985911 0.2977737 0.2962745 0.2950287 0.2889504 0.2880847 0.2917418 0.2880821 0.2862613 0.2851571 0.278898 0.2808264 0.2801399 0.2780089 0.2747127 0.2770115 0.2735632 0.2735632 0.2747127 0.2758621 0.2758621 0.2747127 0.2758621 0.2747127 0.2735632 0.2747127 0.2747127 0.2735632 0.2747127 0.2735632 0.2781609 0.2747127 0.2747127 0.2724138 0.2712644 0.2712644 0.2747127 0.2770115 0.2735632 0.2747127 0.2724138 0.2735632 0.2758621 0.2712644 0.2735632 0.2712644 0.2701149 0.2735632 0.2724138 0.2689655 0.2712644 0.2666667 0.2712644 0.2712644 0.2724138 0.2712644 0.2701149 0.2712644 0.2712644 0.2701149 0.2724138 0.2735632 0.2712644 0.2701149 0.2712644 0.2712644 0.2724138 0.2712644 0.2712644 0.2712644 0.2712644 0.2689655 0.2701149 0.2701149 0.2712644 0.2689655 0.2689655 0.2689655 0.2735632 0.2701149 0.2712644 0.2701149 0.2712644 0.2712644 0.2712644 0.2724138 0.2724138 0.2724138 0.2712644 0.2712644 0.2712644 0.2712644 0.2724138 0.2724138 0.2724138 0.2701149 0.2735632 0.2724138 0.2747127 0.2735632 0.2747127 0.2747127 0.2724138 0.2735632 0.2735632 0.2747127 0.2747127 0.2758621 0.2724138 0.2724138 0.2758621 0.2747127 0.2758621 0.2758621 0.2770115 0.2781609 0.2758621 0.2770115 0.2747127 0.2770115 0.2781609 0.2758621 0.2781609 0.2735632 0.2758621 0.2758621 0.2758621 0.2770115 0.2758621 0.2724138 0.2758621 0.2770115 0.2758621 0.2770115 0.2724138 0.2735632 0.2701149 0.2716633 0.273935 0.2718803 0.2732047 0.2755363 0.2754271 0.2880011 0.2891001 0.291535 0.2930613 0.2939593 0.2978027 0.2994389 0.2988704 0.2983195 0.3000178 0.3014236 0.3026171 0.3024907 0.3019694 0.3021539 0.2993337 0.2996021 0.3040034 0.3083018 0.3073662 0.3108186 0.3161801 0.3199253 0.3059728 0.3057378 0.3068515 0.3049503 0.3045977 0.3057471 0.3149425 0.3149425 0.3218391 0.316092 0.3195402 0.3195402 0.3206896 0.3264368 0.3252873 0.3344828 0.3252873 0.3264368 0.3218391 0.3252873 0.3264368 0.3252873 0.3344828 0.3356322 -9999 -9999 -9999 -9999 -9999 -9999 -9999 -9999 -9999 -9999 -9999 -9999 -9999 -9999 -9999 -9999 -9999 -9999
-9999 -9999 -9999 -9999 -9999 -9999 -9999 -9999 -9999 -9999 -9999 -9999 -9999 -9999 -9999 -9999 -9999 -9999 -9999 -9999 -9999 -9999 -9999 -9999 -9999 -9999 -9999 -9999 -9999 0.2957908 0.2952995 0.2946871 0.2954524 0.2954443 0.2954361 0.2968094 0.2973123 0.2965756 0.297511 0.297115 0.2932565 0.2914202 0.2932958 0.2959534 0.2967019 0.2965426 0.2961844 0.2966124 0.2962001 0.2972839 0.2980478 0.297321 0.2975269 0.296774 0.2979275 0.2982914 0.2989142 0.2986212 0.297824 0.2971166 0.2971287 0.2979557 0.2991042 0.2986331 0.2992083 0.2992579 0.2985658 0.3002327 0.2975855 0.2984135 0.2987576 0.2992598 0.3025895 0.3043499 0.2994356 0.2988506 0.3 0.3022988 0.3 0.2965517 0.2977012 0.2965517 0.3022988 0.2988506 0.3 0.2988146 0.2998372 0.2998372 0.3000974 0.2999646 0.2991477 0.2983623 0.3002879 0.2993741 0.2996535 0.2985911 0.2931437 0.2930324 0.2945501 0.2901946 0.2821113 0.2859292 0.2815277 0.2813836 0.2748782 0.2773965 0.277851 0.2759538 0.2758621 0.2747127 0.2735632 0.2724138 0.2770115 0.2758621 0.2735632 0.2747127 0.2735632 0.2735632 0.2747127 0.2747127 0.2724138 0.2747127 0.2747127 0.2735632 0.2735632 0.2747127 0.2712644 0.2735632 0.2735632 0.2735632 0.2747127 0.2735632 0.2735632 0.2758621 0.2712644 0.2735632 0.2724138 0.2735632 0.2712644 0.2735632 0.2701149 0.2701149 0.2747127 0.2712644 0.2724138 0.2689655 0.2666667 0.2689655 0.2701149 0.2701149 0.2701149 0.2712644 0.2712644 0.2712644 0.2724138 0.2701149 0.2712644 0.2701149 0.2724138 0.2724138 0.2689655 0.2724138 0.2712644 0.2712644 0.2701149 0.2712644 0.2689655 0.2689655 0.2689655 0.2701149 0.2701149 0.2701149 0.2712644 0.2724138 0.2701149 0.2701149 0.2724138 0.2712644 0.2689655 0.2701149 0.2724138 0.2735632 0.2712644 0.2747127 0.2724138 0.2701149 0.2724138 0.2724138 0.2712644 0.2735632 0.2735632 0.2701149 0.2724138 0.2724138 0.2701149 0.2735632 0.2758621 0.2735632 0.2724138 0.2724138 0.2724138 0.2747127 0.2735632 0.2701149 0.2701149 0.2758621 0.2758621 0.2747127 0.2758621 0.2747127 0.2770115 0.2747127 0.2770115 0.2781609 0.2781609 0.2781609 0.2758621 0.2770115 0.2758621 0.2770115 0.2770115 0.2770115 0.2758621 0.2747127 0.2758621 0.2735632 0.2758621 0.2747127 0.2747127 0.2735632 0.2712644 0.2732317 0.2735485 0.2724077 0.2733696 0.2748049 0.2772857 0.2778683 0.2812946 0.2824483 0.2848912 0.2842705 0.2835647 0.283826 0.2833886 0.2939836 0.2953198 0.2989847 0.2993158 0.3000318 0.2998077 0.2939934 0.2914979 0.2936857 0.2969184 0.3015622 0.305111 0.3062797 0.3142578 0.3142419 0.311481 0.304062 0.30316 0.3042352 0.3030709 0.3057471 0.3103448 0.3103448 0.3172414 0.3172414 0.3195402 0.3126437 0.3264368 0.3218391 0.3310345 0.3218391 0.3321839 0.3241379 0.3252873 0.3275862 0.3333333 0.3252873 0.3241379 -9999 -9999 -9999 -9999 -9999 -9999 -9999 -9999 -9999 -9999 -9999 -9999 -9999 -9999 -9999 -9999 -9999 -9999 -9999 -9999
-9999 -9999 -9999 -9999 -9999 -9999 -9999 -9999 -9999 -9999 -9999 -9999 -9999 -9999 -9999 -9999 -9999 -9999 -9999 -9999 -9999 -9999 -9999 -9999 -9999 -9999 -9999 -9999 -9999 -9999 0.2944245 0.2943446 0.2944367 0.294925 0.2957007 0.296368 0.296368 0.2993602 0.2969973 0.2962351 0.2959495 0.2919123 0.2931132 0.2957352 0.2967019 0.297253 0.2972533 0.2974151 0.2980385 0.2979965 0.2966579 0.2991039 0.300002 0.2967302 0.2985246 0.2995977 0.2992783 0.298682 0.2972917 0.2967682 0.2966655 0.2977266 0.2987612 0.2979968 0.2992083 0.2971838 0.2978391 0.3003661 0.2979876 0.2980932 0.2978038 0.2979856 0.2994061 0.3000547 0.2997282 0.2985333 0.2986236 0.297947 0.297545 0.2965517 0.2977012 0.2965517 0.3022988 0.2986863 0.2984047 0.2974942 0.2997112 0.3009975 0.2999158 0.2999003 0.3002848 0.296663 0.2966554 0.2959191 0.2988178 0.2968969 0.2924411 0.2899013 0.2894677 0.2866788 0.2858893 0.283537 0.2817888 0.2810774 0.2744153 0.2760248 0.2781609 0.2747127 0.2735632 0.2770115 0.2724138 0.2724138 0.2735632 0.2758621 0.2747127 0.2758621 0.2758621 0.2747127 0.2735632 0.2735632 0.2724138 0.2724138 0.2724138 0.2724138 0.2735632 0.2724138 0.2724138 0.2735632 0.2712644 0.2735632 0.2747127 0.2724138 0.2758621 0.2747127 0.2735632 0.2735632 0.2735632 0.2701149 0.2735632 0.2712644 0.2712644 0.2689655 0.2724138 0.2712644 0.2712644 0.2689655 0.2701149 0.2689655 0.2701149 0.2666667 0.2689655 0.2689655 0.2712644 0.2712644 0.2712644 0.2701149 0.2712644 0.2735632 0.2735632 0.2701149 0.2712644 0.2701149 0.2701149 0.2678161 0.2678161 0.2689655 0.2689655 0.2701149 0.2701149 0.2701149 0.2712644 0.2712644 0.2701149 0.2712644 0.2701149 0.2712644 0.2712644 0.2678161 0.2689655 0.2689655 0.2712644 0.2689655 0.2701149 0.2701149 0.2689655 0.2701149 0.2712644 0.2712644 0.2712644 0.2724138 0.2758621 0.2724138 0.2735632 0.2712644 0.2724138 0.2747127 0.2712644 0.2735632 0.2735632 0.2735632 0.2712644 0.2712644 0.2724138 0.2747127 0.2747127 0.2758621 0.2747127 0.2804598 0.2770115 0.2770115 0.2770115 0.2770115 0.2758621 0.2770115 0.2793103 0.2793103 0.2747127 0.2747127 0.2758621 0.2758621 0.2758621 0.2758621 0.2747127 0.2758621 0.2781609 0.2724138 0.2747127 0.2758621 0.2758621 0.2735632 0.2747127 0.2712644 0.2716595 0.2726486 0.2725251 0.2749098 0.2732384 0.2773655 0.2784065 0.276107 0.2793187 0.2787403 0.2772266 0.2806306 0.2827432 0.2893297 0.2955975 0.2967981 0.2957667 0.2962451 0.2930029 0.2896462 0.28856 0.2912256 0.2949792 0.3032019 0.3051668 0.3133329 0.3066711 0.3087415 0.30113 0.2998019 0.3010387 0.3021751 0.3031225 0.308046 0.3091954 0.3091954 0.3126437 0.316092 0.3206896 0.3137931 0.3252873 0.3287356 0.3252873 0.3229885 0.3287356 0.3229885 0.3252873 0.3298851 0.3321839 0.3321839 -9999 -9999 -9999 -9999 -9999 -9999 -9999 -9999 -9999 -9999 -9999 -9999 -9999 -9999 -9999 -9999 -9999 -9999 -9999 -9999 -9999
-9999 -9999 -9999 -9999 -9999 -9999 -9999 -9999 -9999 -9999 -9999 -9999 -9999 -9999 -9999 -9999 -9999 -9999 -9999 -9999 -9999 -9999 -9999 -9999 -9999 -9999 -9999 -9999 -9999 -9999 0.2951044 0.2933215 0.2932669 0.294925 0.2962374 0.2977428 0.2982599 0.2989137 0.2969863 0.2936477 0.2936268 0.2921543 0.2956937 0.2956394 0.2964594 0.2971127 0.2966718 0.2982533 0.2981619 0.2970406 0.2974546 0.2985813 0.3000858 0.3001617 0.2981536 0.2982557 0.2975354 0.2969472 0.297536 0.2980841 0.2980804 0.2970621 0.2979439 0.2999294 0.2986763 0.2988375 0.2973745 0.2983337 0.2973751 0.2976989 0.2971145 0.2979535 0.2988388 0.300099 0.2982275 0.2984383 0.2981579 0.2968844 0.2980698 0.2992098 0.299374 0.297636 0.2983803 0.2994377 0.2980246 0.2977803 0.3007957 0.3006296 0.3008423 0.2988951 0.29997 0.2996749 0.2929343 0.2911298 0.2912565 0.2895315 0.2951539 0.2922742 0.2904907 0.2840897 0.2842994 0.2814739 0.2793913 0.2812267 0.2744823 0.2793103 0.2781609 0.2747127 0.2747127 0.2758621 0.2735632 0.2758621 0.2747127 0.2758621 0.2735632 0.2735632 0.2735632 0.2758621 0.2747127 0.2724138 0.2724138 0.2724138 0.2724138 0.2724138 0.2724138 0.2735632 0.2724138 0.2712644 0.2735632 0.2735632 0.2758621 0.2735632 0.2758621 0.2747127 0.2735632 0.2735632 0.2724138 0.2724138 0.2689655 0.2735632 0.2735632 0.2735632 0.2689655 0.2712644 0.2689655 0.2724138 0.2701149 0.2689655 0.2689655 0.2678161 0.2735632 0.2724138 0.2689655 0.2678161 0.2701149 0.2689655 0.2712644 0.2735632 0.2735632 0.2678161 0.2701149 0.2701149 0.2678161 0.2701149 0.2689655 0.2689655 0.2689655 0.2712644 0.2701149 0.2678161 0.2678161 0.2689655 0.2701149 0.2712644 0.2701149 0.2701149 0.2701149 0.2701149 0.2712644 0.2701149 0.2689655 0.2724138 0.2701149 0.2701149 0.2712644 0.2701149 0.2735632 0.2735632 0.2735632 0.2747127 0.2724138 0.2712644 0.2712644 0.2747127 0.2735632 0.2724138 0.2735632 0.2735632 0.2735632 0.2724138 0.2701149 0.2712644 0.2701149 0.2735632 0.2735632 0.2758621 0.2735632 0.2770115 0.2781609 0.2781609 0.2758621 0.2758621 0.2770115 0.2770115 0.2758621 0.2770115 0.2747127 0.2758621 0.2747127 0.2758621 0.2758621 0.2747127 0.2747127 0.2758621 0.2781609 0.2747127 0.2758621 0.2747127 0.2747127 0.2747127 0.2701149 0.2724138 0.2736159 0.2743508 0.2749188 0.2741221 0.2739256 0.2783702 0.2776033 0.2761724 0.2786048 0.2775665 0.280666 0.2806048 0.2812873 0.2837053 0.2918631 0.2912666 0.2899443 0.2882693 0.2883443 0.288534 0.2879612 0.2881196 0.2919632 0.3038509 0.3055643 0.3198834 0.3054952 0.3028942 0.2989323 0.2992564 0.3002477 0.3033938 0.3058204 0.308046 0.3103448 0.3103448 0.3103448 0.3195402 0.3252873 0.3137931 0.3218391 0.3241379 0.3229885 0.3298851 0.3275862 0.3275862 0.3287356 0.3287356 0.3333333 -9999 -9999 -9999 -9999 -9999 -9999 -9999 -9999 -9999 -9999 -9999 -9999 -9999 -9999 -9999 -9999 -9999 -9999 -9999 -9999 -9999 -9999
-9999 -9999 -9999 -9999 -9999 -9999 -9999 -9999 -9999 -9999 -9999 -9999 -9999 -9999 -9999 -9999 -9999 -9999 -9999 -9999 -9999 -9999 -9999 -9999 -9999 -9999 -9999 -9999 -9999 -9999 0.2952124 0.2935894 0.2931035 0.2956975 0.2954406 0.2977476 0.3027522 0.2968363 0.2931581 0.2910883 0.2923704 0.2927689 0.2955986 0.296488 0.2965561 0.2975924 0.2985111 0.2996281 0.2988078 0.2976954 0.3003216 0.2998323 0.2993502 0.299008 0.2976533 0.2984839 0.2969289 0.2971503 0.2979928 0.2976555 0.2986672 0.2966325 0.2979617 0.299629 0.2986828 0.2986041 0.2979306 0.2994385 0.2973494 0.2971978 0.2981938 0.2977474 0.2987611 0.2985307 0.2984373 0.2984586 0.2984535 0.3001772 0.3011277 0.3005625 0.2999904 0.2989075 0.2996635 0.298267 0.2988369 0.2994469 0.2984254 0.3006032 0.300725 0.2958539 0.2948497 0.2958716 0.2929343 0.2920813 0.2926762 0.2851638 0.2888471 0.2865907 0.2820793 0.2787243 0.2782219 0.2787577 0.2786058 0.2781609 0.2747127 0.2724138 0.2735632 0.2747127 0.2735632 0.2747127 0.2701149 0.2758621 0.2758621 0.2735632 0.2724138 0.2724138 0.2724138 0.2724138 0.2724138 0.2712644 0.2724138 0.2712644 0.2701149 0.2735632 0.2735632 0.2724138 0.2747127 0.2724138 0.2712644 0.2735632 0.2735632 0.2724138 0.2735632 0.2735632 0.2735632 0.2712644 0.2701149 0.2712644 0.2689655 0.2724138 0.2747127 0.2701149 0.2689655 0.2712644 0.2689655 0.2724138 0.2701149 0.2689655 0.2701149 0.2701149 0.2770115 0.2770115 0.2747127 0.2678161 0.2701149 0.2678161 0.2712644 0.2712644 0.2712644 0.2712644 0.2701149 0.2701149 0.2678161 0.2701149 0.2701149 0.2678161 0.2678161 0.2701149 0.2689655 0.2689655 0.2689655 0.2689655 0.2712644 0.2701149 0.2701149 0.2689655 0.2701149 0.2689655 0.2678161 0.2701149 0.2712644 0.2712644 0.2735632 0.2712644 0.2724138 0.2758621 0.2735632 0.2701149 0.2701149 0.2689655 0.2712644 0.2724138 0.2712644 0.2724138 0.2712644 0.2747127 0.2724138 0.2735632 0.2758621 0.2724138 0.2724138 0.2701149 0.2735632 0.2758621 0.2758621 0.2758621 0.2747127 0.2747127 0.2747127 0.2758621 0.2770115 0.2770115 0.2758621 0.2758621 0.2758621 0.2770115 0.2735632 0.2747127 0.2747127 0.2747127 0.2735632 0.2735632 0.2724138 0.2758621 0.2724138 0.2735632 0.2747127 0.2758621 0.2712644 0.2747127 0.2701149 0.2724138 0.2735984 0.2738317 0.2745728 0.2746327 0.2758115 0.2759856 0.27535 0.2786454 0.2812264 0.2850541 0.2863014 0.2822869 0.280894 0.2843685 0.2860753 0.2855711 0.2860762 0.2865373 0.2883613 0.2897809 0.2904893 0.2909399 0.2908341 0.3038575 0.3088474 0.3042012 0.3014948 0.2971047 0.2989022 0.3008589 0.3011543 0.3043129 0.3058204 0.3057471 0.3103448 0.3114943 0.3091954 0.3103448 0.3114943 0.3114943 0.3172414 0.3252873 0.3229885 0.3298851 0.3275862 0.3241379 0.3264368 0.3206896 -9999 -9999 -9999 -9999 -9999 -9999 -9999 -9999 -9999 -9999 -9999 -9999 -9999 -9999 -9999 -9999 -9999 -9999 -9999 -9999 -9999 -9999 -9999
-9999 -9999 -9999 -9999 -9999 -9999 -9999 -9999 -9999 -9999 -9999 -9999 -9999 -9999 -9999 -9999 -9999 -9999 -9999 -9999 -9999 -9999 -9999 -9999 -9999 -9999 -9999 -9999 -9999 -9999 0.2937444 0.294588 0.2938024 0.2939632 0.2960466 0.3021835 0.2985628 0.2963391 0.2919266 0.2917231 0.2905591 0.2931335 0.2955991 0.2958438 0.296611 0.2983446 0.2971548 0.2982185 0.2976594 0.2981251 0.2987195 0.2982004 0.2982808 0.2974986 0.2965891 0.2978202 0.2970167 0.2996895 0.2972883 0.29882 0.298772 0.2966325 0.2977222 0.2988351 0.2972707 0.2997009 0.2987717 0.2995167 0.2972426 0.2969058 0.297829 0.2986628 0.2987595 0.2980266 0.2970456 0.2974965 0.2986688 0.2988487 0.3007706 0.3009708 0.2998577 0.2979513 0.2991433 0.2987322 0.2977827 0.2974647 0.2987458 0.2989236 0.2987798 0.2999745 0.2986656 0.2941281 0.2937925 0.293629 0.2949176 0.2892841 0.2861282 0.282509 0.2786947 0.2761349 0.2756331 0.2771972 0.2758621 0.2758621 0.2724138 0.2747127 0.2747127 0.2735632 0.2758621 0.2735632 0.2724138 0.2747127 0.2735632 0.2747127 0.2724138 0.2712644 0.2701149 0.2735632 0.2701149 0.2689655 0.2712644 0.2712644 0.2712644 0.2724138 0.2724138 0.2735632 0.2735632 0.2724138 0.2724138 0.2758621 0.2724138 0.2735632 0.2735632 0.2735632 0.2735632 0.2701149 0.2735632 0.2712644 0.2712644 0.2758621 0.2724138 0.2701149 0.2735632 0.2712644 0.2701149 0.2701149 0.2712644 0.2689655 0.2689655 0.2689655 0.2724138 0.2735632 0.2712644 0.2678161 0.2701149 0.2701149 0.2712644 0.2701149 0.2724138 0.2701149 0.2689655 0.2689655 0.2712644 0.2712644 0.2689655 0.2689655 0.2689655 0.2701149 0.2712644 0.2689655 0.2701149 0.2701149 0.2678161 0.2701149 0.2701149 0.2689655 0.2701149 0.2701149 0.2689655 0.2678161 0.2724138 0.2724138 0.2735632 0.2712644 0.2701149 0.2758621 0.2735632 0.2701149 0.2689655 0.2701149 0.2735632 0.2724138 0.2712644 0.2735632 0.2724138 0.2735632 0.2724138 0.2724138 0.2735632 0.2701149 0.2689655 0.2701149 0.2735632 0.2747127 0.2770115 0.2770115 0.2781609 0.2770115 0.2747127 0.2758621 0.2770115 0.2781609 0.2770115 0.2747127 0.2758621 0.2770115 0.2747127 0.2747127 0.2770115 0.2724138 0.2735632 0.2735632 0.2747127 0.2735632 0.2747127 0.2735632 0.2747127 0.2735632 0.2747127 0.2747127 0.2724138 0.2724138 0.2737584 0.2740247 0.2745541 0.2754979 0.2762346 0.2823933 0.2913737 0.292883 0.2945659 0.2900216 0.2924041 0.2884997 0.2876507 0.2874612 0.2821544 0.2837034 0.286467 0.2882557 0.289351 0.2911736 0.2919663 0.2921142 0.291007 0.2950318 0.2958217 0.2983992 0.2973672 0.2984437 0.2994752 0.30145 0.3024577 0.3046679 0.3047092 0.3057421 0.3091954 0.3068965 0.3045977 0.308046 0.3091954 0.3126437 0.308046 0.3149425 0.3241379 0.3172414 0.3149425 0.316092 0.3172414 -9999 -9999 -9999 -9999 -9999 -9999 -9999 -9999 -9999 -9999 -9999 -9999 -9999 -9999 -9999 -9999 -9999 -9999 -9999 -9999 -9999 -9999 -9999 -9999
-9999 -9999 -9999 -9999 -9999 -9999 -9999 -9999 -9999 -9999 -9999 -9999 -9999 -9999 -9999 -9999 -9999 -9999 -9999 -9999 -9999 -9999 -9999 -9999 -9999 -9999 -9999 -9999 -9999 0.2954041 0.2937444 0.2949815 0.2937568 0.2960306 0.2966502 0.2964836 0.2958925 0.2965541 0.2948452 0.2917752 0.2905834 0.2957284 0.2959262 0.2959878 0.2972939 0.2978936 0.2973951 0.2976443 0.2978119 0.2990262 0.2988031 0.2978102 0.2978752 0.2965813 0.296735 0.298077 0.2973154 0.2984452 0.2970943 0.2964448 0.298074 0.297435 0.2969742 0.2986006 0.2970335 0.2996141 0.2985204 0.299487 0.2980438 0.2975153 0.2975076 0.2990459 0.2971841 0.2980857 0.2974007 0.2963529 0.2975048 0.2997629 0.3001931 0.2989506 0.2984087 0.2978466 0.2999536 0.299085 0.2985736 0.2986974 0.2987379 0.2989821 0.2976386 0.2985201 0.2987527 0.2941744 0.2927951 0.2921212 0.2929997 0.2901065 0.2861537 0.2789705 0.2727349 0.2748334 0.2747017 0.2758621 0.2712644 0.2724138 0.2747127 0.2747127 0.2735632 0.2747127 0.2747127 0.2712644 0.2770115 0.2735632 0.2747127 0.2747127 0.2735632 0.2724138 0.2724138 0.2724138 0.2701149 0.2701149 0.2712644 0.2712644 0.2724138 0.2712644 0.2724138 0.2735632 0.2712644 0.2724138 0.2735632 0.2701149 0.2701149 0.2701149 0.2689655 0.2724138 0.2701149 0.2701149 0.2724138 0.2689655 0.2712644 0.2735632 0.2689655 0.2701149 0.2712644 0.2701149 0.2689655 0.2712644 0.2701149 0.2712644 0.2724138 0.2689655 0.2712644 0.2689655 0.2701149 0.2701149 0.2701149 0.2735632 0.2735632 0.2747127 0.2724138 0.2712644 0.2712644 0.2701149 0.2712644 0.2712644 0.2678161 0.2689655 0.2666667 0.2689655 0.2712644 0.2701149 0.2689655 0.2701149 0.2678161 0.2689655 0.2689655 0.2689655 0.2678161 0.2678161 0.2701149 0.2678161 0.2689655 0.2712644 0.2689655 0.2678161 0.2655172 0.2678161 0.2701149 0.2689655 0.2701149 0.2724138 0.2724138 0.2712644 0.2712644 0.2712644 0.2724138 0.2701149 0.2701149 0.2678161 0.2689655 0.2712644 0.2735632 0.2735632 0.2770115 0.2747127 0.2735632 0.2735632 0.2724138 0.2724138 0.2758621 0.2758621 0.2758621 0.2781609 0.2770115 0.2735632 0.2758621 0.2758621 0.2758621 0.2758621 0.2747127 0.2747127 0.2735632 0.2735632 0.2747127 0.2735632 0.2747127 0.2735632 0.2735632 0.2712644 0.2689655 0.2701149 0.2758621 0.2712644 0.2718682 0.27455 0.2768753 0.2750567 0.2810948 0.2867176 0.2942127 0.2938552 0.2953456 0.2916655 0.2931139 0.2897056 0.289803 0.2904663 0.2884362 0.2875668 0.2876633 0.2892382 0.2899087 0.2930176 0.2950827 0.291954 0.2915415 0.2917284 0.293358 0.2959477 0.2975599 0.2980982 0.2968937 0.2987794 0.2999078 0.3004024 0.3010657 0.3020537 0.3035415 0.3045977 0.3045977 0.3149425 0.3114943 0.3126437 0.308046 0.3114943 0.316092 0.3126437 0.3183908 -9999 -9999 -9999 -9999 -9999 -9999 -9999 -9999 -9999 -9999 -9999 -9999 -9999 -9999 -9999 -9999 -9999 -9999 -9999 -9999 -9999 -9999 -9999 -9999 -9999 -9999
-9999 -9999 -9999 -9999 -9999 -9999 -9999 -9999 -9999 -9999 -9999 -9999 -9999 -9999 -9999 -9999 -9999 -9999 -9999 -9999 -9999 -9999 -9999 -9999 -9999 -9999 -9999 -9999 0.2961317 0.296012 0.2940729 0.2942269 0.2964184 0.295763 0.2965446 0.2965517 0.2962694 0.296179 0.2919111 0.2913666 0.2933391 0.2968163 0.2980227 0.2963269 0.2977825 0.2961495 0.2979768 0.2985311 0.2978331 0.2973956 0.2969836 0.2968079 0.2976808 0.2968531 0.2961192 0.2965041 0.2989118 0.2987957 0.2969749 0.2969992 0.2970367 0.2977511 0.2976674 0.2996072 0.2971385 0.296465 0.2966684 0.2979439 0.2987548 0.2981453 0.2971273 0.2976764 0.2965482 0.2973108 0.2984245 0.2970656 0.2990164 0.297884 0.2980876 0.2983383 0.2991396 0.2994074 0.2994074 0.298326 0.2992003 0.2992735 0.2995766 0.2998562 0.2992179 0.2985201 0.298308 0.2937765 0.293922 0.2898671 0.2912828 0.2819996 0.2780595 0.2763905 0.2760051 0.275395 0.2735632 0.2747127 0.2724138 0.2724138 0.2735632 0.2735632 0.2735632 0.2747127 0.2747127 0.2712644 0.2735632 0.2735632 0.2735632 0.2735632 0.2724138 0.2724138 0.2724138 0.2724138 0.2712644 0.2701149 0.2724138 0.2724138 0.2712644 0.2724138 0.2712644 0.2724138 0.2724138 0.2701149 0.2724138 0.2712644 0.2712644 0.2712644 0.2712644 0.2678161 0.2689655 0.2701149 0.2689655 0.2678161 0.2689655 0.2689655 0.2678161 0.2689655 0.2701149 0.2735632 0.2712644 0.2712644 0.2712644 0.2678161 0.2712644 0.2724138 0.2666667 0.2712644 0.2689655 0.2666667 0.2701149 0.2701149 0.2712644 0.2724138 0.2689655 0.2701149 0.2712644 0.2701149 0.2724138 0.2701149 0.2689655 0.2689655 0.2689655 0.2701149 0.2666667 0.2678161 0.2689655 0.2701149 0.2666667 0.2666667 0.2701149 0.2678161 0.2666667 0.2666667 0.2701149 0.2689655 0.2666667 0.2678161 0.2689655 0.2701149 0.2712644 0.2678161 0.2678161 0.2701149 0.2712644 0.2701149 0.2678161 0.2701149 0.2678161 0.2689655 0.2689655 0.2666667 0.2701149 0.2724138 0.2712644 0.2724138 0.2712644 0.2724138 0.2735632 0.2735632 0.2712644 0.2747127 0.2770115 0.2747127 0.2735632 0.2758621 0.2758621 0.2770115 0.2747127 0.2747127 0.2747127 0.2747127 0.2747127 0.2724138 0.2747127 0.2747127 0.2747127 0.2724138 0.2747127 0.2747127 0.2747127 0.2735632 0.2724138 0.2758621 0.2804598 0.2724138 0.2735632 0.2724138 0.2739191 0.2742507 0.2725782 0.2734568 0.2792991 0.2982091 0.305526 0.300636 0.2998853 0.2960652 0.2959691 0.292095 0.292314 0.2919454 0.290543 0.291072 0.2917116 0.2915307 0.2925112 0.2954742 0.2973492 0.2963964 0.291971 0.292059 0.2948358 0.2961418 0.3013142 0.3012697 0.2968131 0.2987794 0.2987458 0.3013631 0.3040053 0.3032032 0.3042505 0.3034483 0.3045977 0.3091954 0.3103448 0.3126437 0.3229885 0.3137931 0.316092 0.3126437 -9999 -9999 -9999 -9999 -9999 -9999 -9999 -9999 -9999 -9999 -9999 -9999 -9999 -9999 -9999 -9999 -9999 -9999 -9999 -9999 -9999 -9999 -9999 -9999 -9999 -9999 -9999
-9999 -9999 -9999 -9999 -9999 -9999 -9999 -9999 -9999 -9999 -9999 -9999 -9999 -9999 -9999 -9999 -9999 -9999 -9999 -9999 -9999 -9999 -9999 -9999 -9999 -9999 -9999 0.2978426 0.2965923 0.295385 0.2946048 0.2952515 0.2964838 0.2959969 0.297251 0.2966473 0.2975003 0.2951305 0.2915517 0.2912086 0.2942442 0.2972472 0.2986653 0.296205 0.2976016 0.2960665 0.2984585 0.2986867 0.297962 0.2962671 0.2977836 0.2958812 0.2977687 0.2975439 0.2960029 0.2965188 0.297617 0.2985962 0.2969749 0.2976681 0.2976958 0.2980464 0.2988362 0.2986646 0.2976179 0.2964534 0.2967012 0.2974127 0.2989224 0.295871 0.2979182 0.2977847 0.2988243 0.2969467 0.2966098 0.2978351 0.2990865 0.298077 0.2980876 0.2980593 0.2974312 0.2975834 0.2982661 0.2989848 0.3007676 0.2980219 0.2979842 0.2989278 0.2999943 0.2987192 0.2964942 0.296346 0.2913771 0.282465 0.2798299 0.2765034 0.2744052 0.2743708 0.2724138 0.2747127 0.2735632 0.2735632 0.2735632 0.2724138 0.2758621 0.2724138 0.2747127 0.2747127 0.2724138 0.2735632 0.2735632 0.2747127 0.2724138 0.2735632 0.2724138 0.2712644 0.2712644 0.2712644 0.2701149 0.2701149 0.2724138 0.2724138 0.2724138 0.2724138 0.2712644 0.2724138 0.2712644 0.2735632 0.2712644 0.2712644 0.2712644 0.2701149 0.2712644 0.2701149 0.2701149 0.2678161 0.2712644 0.2701149 0.2712644 0.2689655 0.2701149 0.2701149 0.2701149 0.2724138 0.2724138 0.2712644 0.2712644 0.2689655 0.2712644 0.2724138 0.2689655 0.2712644 0.2689655 0.2666667 0.2689655 0.2701149 0.2724138 0.2701149 0.2689655 0.2689655 0.2712644 0.2712644 0.2712644 0.2701149 0.2701149 0.2678161 0.2678161 0.2689655 0.2678161 0.2689655 0.2701149 0.2678161 0.2666667 0.2678161 0.2655172 0.2701149 0.2689655 0.2689655 0.2701149 0.2689655 0.2689655 0.2701149 0.2701149 0.2689655 0.2735632 0.2724138 0.2701149 0.2712644 0.2678161 0.2666667 0.2701149 0.2724138 0.2701149 0.2712644 0.2735632 0.2724138 0.2735632 0.2735632 0.2735632 0.2724138 0.2747127 0.2701149 0.2747127 0.2735632 0.2735632 0.2758621 0.2735632 0.2747127 0.2735632 0.2735632 0.2747127 0.2758621 0.2724138 0.2724138 0.2724138 0.2747127 0.2735632 0.2747127 0.2735632 0.2735632 0.2747127 0.2724138 0.2724138 0.2735632 0.2735632 0.2712644 0.2689655 0.2712644 0.2701149 0.2735632 0.2747127 0.2735632 0.2724561 0.274107 0.274276 0.2735872 0.2751542 0.2870584 0.3040952 0.3061463 0.3035201 0.3065326 0.3057519 0.3045155 0.3048084 0.3012328 0.3034647 0.3042955 0.3021735 0.3028609 0.2925112 0.2963667 0.3004239 0.3009671 0.2999359 0.3017414 0.3031928 0.3024395 0.3048342 0.3036482 0.2975119 0.2990618 0.2994213 0.3033066 0.3054053 0.3037973 0.3048194 0.3068965 0.3068965 0.3114943 0.3195402 0.3241379 0.3195402 0.3229885 0.3206896 -9999 -9999 -9999 -9999 -9999 -9999 -9999 -9999 -9999 -9999 -9999 -9999 -9999 -9999 -9999 -9999 -9999 -9999 -9999 -9999 -9999 -9999 -9999 -9999 -9999 -9999 -9999 -9999
-9999 -9999 -9999 -9999 -9999 -9999 -9999 -9999 -9999 -9999 -9999 -9999 -9999 -9999 -9999 -9999 -9999 -9999 -9999 -9999 -9999 -9999 -9999 -9999 -9999 -9999 -9999 0.2978426 0.2957993 0.2956769 0.2961225 0.2968363 0.2964364 0.2979208 0.2962695 0.2968393 0.2975142 0.293869 0.2904303 0.2901761 0.296521 0.2974366 0.2987383 0.2977463 0.2957554 0.2976544 0.2972194 0.2986867 0.2974354 0.2966467 0.2976007 0.2965218 0.2964925 0.2957806 0.2972356 0.2986956 0.2977833 0.2984722 0.2971538 0.2975232 0.2978331 0.2978918 0.2994664 0.2987082 0.29736 0.2968141 0.2971449 0.2968863 0.2995787 0.2962899 0.2972672 0.2983861 0.2985299 0.2979121 0.2981333 0.2983172 0.2983762 0.2980341 0.29752 0.2979335 0.2976798 0.297335 0.2978135 0.2992885 0.2994972 0.2977031 0.2981159 0.2988449 0.2979725 0.2983141 0.2898368 0.2904754 0.2868092 0.2810365 0.2758428 0.2748769 0.2735711 0.2727341 0.2712644 0.2724138 0.2724138 0.2724138 0.2747127 0.2747127 0.2735632 0.2724138 0.2747127 0.2712644 0.2724138 0.2735632 0.2758621 0.2724138 0.2712644 0.2712644 0.2724138 0.2712644 0.2701149 0.2701149 0.2701149 0.2701149 0.2724138 0.2712644 0.2701149 0.2724138 0.2701149 0.2701149 0.2701149 0.2712644 0.2712644 0.2712644 0.2701149 0.2701149 0.2712644 0.2701149 0.2678161 0.2689655 0.2689655 0.2689655 0.2712644 0.2701149 0.2689655 0.2689655 0.2701149 0.2689655 0.2689655 0.2689655 0.2689655 0.2678161 0.2678161 0.2689655 0.2701149 0.2701149 0.2701149 0.2689655 0.2689655 0.2701149 0.2724138 0.2701149 0.2701149 0.2724138 0.2735632 0.2747127 0.2701149 0.2689655 0.2701149 0.2701149 0.2689655 0.2701149 0.2678161 0.2689655 0.2701149 0.2678161 0.2666667 0.2666667 0.2678161 0.2666667 0.2689655 0.2701149 0.2701149 0.2689655 0.2666667 0.2701149 0.2712644 0.2701149 0.2724138 0.2712644 0.2701149 0.2689655 0.2678161 0.2701149 0.2724138 0.2724138 0.2724138 0.2735632 0.2735632 0.2735632 0.2735632 0.2735632 0.2735632 0.2747127 0.2712644 0.2735632 0.2770115 0.2758621 0.2747127 0.2804598 0.2758621 0.2747127 0.2735632 0.2758621 0.2735632 0.2747127 0.2724138 0.2735632 0.2724138 0.2747127 0.2770115 0.2735632 0.2735632 0.2758621 0.2758621 0.2735632 0.2747127 0.2735632 0.2735632 0.2724138 0.2712644 0.2712644 0.2758621 0.2701149 0.2701149 0.2712644 0.2713949 0.2734591 0.2735422 0.2732368 0.2736727 0.2768141 0.3027139 0.3062647 0.3069341 0.3088543 0.308283 0.3089083 0.3083171 0.3080666 0.3081769 0.3080581 0.3093916 0.3064018 0.3077541 0.3073976 0.3038608 0.3044032 0.304091 0.3071814 0.3071744 0.3047941 0.3101211 0.3087275 0.3078452 0.3098781 0.3119049 0.3126803 0.3132494 0.3135677 0.3140818 0.3160078 0.316092 0.3149425 0.3195402 0.3206896 0.3206896 0.3252873 -9999 -9999 -9999 -9999 -9999 -9999 -9999 -9999 -9999 -9999 -9999 -9999 -9999 -9999 -9999 -9999 -9999 -9999 -9999 -9999 -9999 -9999 -9999 -9999 -9999 -9999 -9999 -9999 -9999
-9999 -9999 -9999 -9999 -9999 -9999 -9999 -9999 -9999 -9999 -9999 -9999 -9999 -9999 -9999 -9999 -9999 -9999 -9999 -9999 -9999 -9999 -9999 -9999 -9999 -9999 0.2970465 0.2965946 0.2968032 0.2976769 0.3002109 0.2962668 0.2972527 0.2964255 0.2954631 0.2967892 0.2983567 0.2959195 0.2922925 0.2915447 0.2972263 0.297351 0.2994575 0.2974415 0.298172 0.29588 0.2971165 0.2972608 0.2968794 0.297168 0.2969261 0.2969416 0.2968705 0.2966007 0.2965719 0.2982245 0.29792 0.2982985 0.2966776 0.298062 0.2985166 0.2995067 0.2974231 0.2995438 0.2971131 0.2970708 0.2967986 0.296676 0.3001471 0.2957078 0.2967926 0.2970892 0.2980307 0.2981474 0.297563 0.2971382 0.2975265 0.2986274 0.2980196 0.2972673 0.2979389 0.2971389 0.2980528 0.2982489 0.2991069 0.2974589 0.2986477 0.298643 0.2980494 0.2980179 0.2864659 0.2848198 0.2797919 0.2747684 0.2768329 0.2712644 0.2745995 0.2724138 0.2712644 0.2724138 0.2724138 0.2735632 0.2735632 0.2735632 0.2724138 0.2758621 0.2747127 0.2712644 0.2712644 0.2735632 0.2735632 0.2735632 0.2712644 0.2701149 0.2701149 0.2712644 0.2701149 0.2701149 0.2701149 0.2701149 0.2712644 0.2712644 0.2701149 0.2724138 0.2701149 0.2701149 0.2689655 0.2712644 0.2689655 0.2724138 0.2712644 0.2712644 0.2701149 0.2701149 0.2689655 0.2689655 0.2712644 0.2689655 0.2712644 0.2701149 0.2689655 0.2712644 0.2712644 0.2701149 0.2689655 0.2701149 0.2678161 0.2689655 0.2689655 0.2689655 0.2689655 0.2678161 0.2678161 0.2689655 0.2689655 0.2689655 0.2724138 0.2701149 0.2724138 0.2712644 0.2724138 0.2678161 0.2689655 0.2678161 0.2689655 0.2689655 0.2701149 0.2678161 0.2689655 0.2678161 0.2689655 0.2689655 0.2666667 0.2678161 0.2701149 0.2689655 0.2701149 0.2689655 0.2655172 0.2655172 0.2666667 0.2689655 0.2701149 0.2712644 0.2712644 0.2712644 0.2689655 0.2712644 0.2701149 0.2724138 0.2712644 0.2712644 0.2724138 0.2712644 0.2701149 0.2724138 0.2724138 0.2724138 0.2735632 0.2735632 0.2735632 0.2724138 0.2735632 0.2747127 0.2747127 0.2758621 0.2747127 0.2747127 0.2735632 0.2735632 0.2735632 0.2747127 0.2724138 0.2712644 0.2747127 0.2758621 0.2758621 0.2747127 0.2735632 0.2770115 0.2735632 0.2758621 0.2747127 0.2724138 0.2735632 0.2724138 0.2712644 0.2712644 0.2758621 0.2758621 0.2758621 0.2712644 0.2731944 0.2734066 0.2725559 0.2743821 0.2751668 0.2753263 0.3039488 0.3085867 0.3098022 0.3110833 0.3106907 0.3098982 0.3098458 0.3104882 0.3098175 0.311105 0.3119957 0.3098454 0.3093668 0.3085517 0.3099952 0.3124257 0.3140352 0.3123565 0.3111981 0.3088755 0.3101211 0.3133753 0.3127683 0.3170455 0.3177901 0.3181626 0.3199259 0.3193819 0.3237639 0.3223683 0.3195402 0.3206896 0.3264368 0.3264368 0.3264368 -9999 -9999 -9999 -9999 -9999 -9999 -9999 -9999 -9999 -9999 -9999 -9999 -9999 -9999 -9999 -9999 -9999 -9999 -9999 -9999 -9999 -9999 -9999 -9999 -9999 -9999 -9999 -9999 -9999 -9999
-9999 -9999 -9999 -9999 -9999 -9999 -9999 -9999 -9999 -9999 -9999 -9999 -9999 -9999 -9999 -9999 -9999 -9999 -9999 -9999 -9999 -9999 -9999 -9999 -9999 -9999 0.2955889 0.2970984 0.2964468 0.2964896 0.2977209 0.2964912 0.2977332 0.2984042 0.2966342 0.2972007 0.298945 0.2958779 0.291652 0.2923199 0.2973551 0.2967944 0.2977256 0.2985439 0.2976794 0.2957934 0.2962317 0.2959374 0.297499 0.2965982 0.2966667 0.2964928 0.2965474 0.2975301 0.2965745 0.2968043 0.2976286 0.2972321 0.297553 0.2968479 0.2966253 0.2963805 0.2972067 0.2995693 0.2962119 0.2971209 0.2959685 0.2971357 0.3002771 0.2962058 0.2969618 0.2976785 0.2972998 0.2957997 0.2980351 0.2979909 0.2973623 0.2982217 0.2970079 0.297331 0.2971239 0.2975757 0.2983819 0.298326 0.2959539 0.2952549 0.2968031 0.2974582 0.2972017 0.294221 0.2911097 0.2821663 0.2765307 0.2727612 0.2757643 0.2735632 0.2724138 0.2712644 0.2712644 0.2747127 0.2747127 0.2724138 0.2724138 0.2735632 0.2735632 0.2735632 0.2712644 0.2701149 0.2735632 0.2712644 0.2735632 0.2701149 0.2712644 0.2735632 0.2701149 0.2712644 0.2724138 0.2701149 0.2712644 0.2701149 0.2701149 0.2701149 0.2712644 0.2701149 0.2712644 0.2735632 0.2724138 0.2724138 0.2724138 0.2724138 0.2689655 0.2701149 0.2701149 0.2701149 0.2701149 0.2678161 0.2678161 0.2701149 0.2689655 0.2689655 0.2701149 0.2689655 0.2689655 0.2689655 0.2701149 0.2712644 0.2678161 0.2689655 0.2678161 0.2678161 0.2689655 0.2689655 0.2689655 0.2678161 0.2689655 0.2689655 0.2724138 0.2689655 0.2712644 0.2712644 0.2701149 0.2678161 0.2689655 0.2678161 0.2689655 0.2689655 0.2701149 0.2678161 0.2701149 0.2678161 0.2666667 0.2689655 0.2666667 0.2666667 0.2666667 0.2666667 0.2701149 0.2689655 0.2689655 0.2678161 0.2632184 0.2689655 0.2712644 0.2701149 0.2724138 0.2689655 0.2712644 0.2701149 0.2701149 0.2712644 0.2712644 0.2735632 0.2747127 0.2724138 0.2712644 0.2712644 0.2724138 0.2724138 0.2712644 0.2735632 0.2735632 0.2735632 0.2735632 0.2724138 0.2735632 0.2724138 0.2747127 0.2747127 0.2770115 0.2712644 0.2724138 0.2724138 0.2701149 0.2747127 0.2724138 0.2747127 0.2747127 0.2747127 0.2770115 0.2770115 0.2758621 0.2747127 0.2747127 0.2724138 0.2712644 0.2689655 0.2689655 0.2666667 0.2689655 0.2712644 0.2724138 0.2724138 0.273068 0.2731547 0.2728417 0.2725851 0.2744667 0.2736868 0.3010199 0.309953 0.3102377 0.3131464 0.3135757 0.3133016 0.3130725 0.3160323 0.3122376 0.311105 0.3131231 0.3117953 0.3124953 0.3110219 0.3136504 0.3129224 0.3139884 0.3148423 0.3135909 0.3109022 0.3071823 0.3135178 0.315847 0.3170265 0.3190181 0.319902 0.3212004 0.3211725 0.3256644 0.3242477 0.3252941 0.3218391 0.3298851 0.3287356 -9999 -9999 -9999 -9999 -9999 -9999 -9999 -9999 -9999 -9999 -9999 -9999 -9999 -9999 -9999 -9999 -9999 -9999 -9999 -9999 -9999 -9999 -9999 -9999 -9999 -9999 -9999 -9999 -9999 -9999 -9999
-9999 -9999 -9999 -9999 -9999 -9999 -9999 -9999 -9999 -9999 -9999 -9999 -9999 -9999 -9999 -9999 -9999 -9999 -9999 -9999 -9999 -9999 -9999 -9999 -9999 0.2968769 0.2963041 0.2966837 0.296712 0.2957352 0.2947276 0.2931449 0.2952961 0.3038775 0.3006879 0.3001838 0.2964528 0.2935002 0.2898111 0.2914985 0.2964575 0.297287 0.2975419 0.2974505 0.2977039 0.2959206 0.2965738 0.2971403 0.2971869 0.2963673 0.296938 0.2963524 0.2965008 0.2970884 0.2966854 0.2959289 0.2965972 0.2986445 0.2990997 0.297768 0.2967862 0.2976012 0.2980441 0.2978184 0.2958035 0.2955523 0.2973097 0.2976622 0.2979982 0.2955897 0.2982855 0.2965944 0.2977033 0.298695 0.2976526 0.2977293 0.2978805 0.2985673 0.297956 0.2978359 0.2968592 0.2977055 0.2986312 0.2981876 0.2975573 0.2935001 0.2940767 0.2931264 0.2958423 0.2916092 0.2856694 0.2772827 0.270933 0.2710702 0.2711134 0.2735632 0.2724138 0.2724138 0.2724138 0.2712644 0.2724138 0.2712644 0.2724138 0.2712644 0.2724138 0.2735632 0.2712644 0.2724138 0.2724138 0.2724138 0.2724138 0.2735632 0.2712644 0.2724138 0.2701149 0.2712644 0.2689655 0.2712644 0.2701149 0.2712644 0.2712644 0.2701149 0.2701149 0.2712644 0.2712644 0.2701149 0.2712644 0.2701149 0.2712644 0.2712644 0.2712644 0.2701149 0.2689655 0.2689655 0.2701149 0.2701149 0.2689655 0.2701149 0.2666667 0.2701149 0.2689655 0.2689655 0.2701149 0.2678161 0.2701149 0.2712644 0.2712644 0.2735632 0.2701149 0.2701149 0.2701149 0.2689655 0.2701149 0.2689655 0.2701149 0.2701149 0.2678161 0.2712644 0.2689655 0.2678161 0.2678161 0.2678161 0.2689655 0.2678161 0.2689655 0.2689655 0.2701149 0.2689655 0.2701149 0.2655172 0.2689655 0.2666667 0.2666667 0.2666667 0.2655172 0.2666667 0.2701149 0.2689655 0.2689655 0.2701149 0.2689655 0.2701149 0.2701149 0.2712644 0.2701149 0.2689655 0.2712644 0.2701149 0.2689655 0.2712644 0.2701149 0.2701149 0.2747127 0.2758621 0.2712644 0.2724138 0.2735632 0.2724138 0.2724138 0.2724138 0.2735632 0.2735632 0.2735632 0.2724138 0.2735632 0.2724138 0.2747127 0.2735632 0.2735632 0.2747127 0.2735632 0.2724138 0.2724138 0.2724138 0.2724138 0.2724138 0.2735632 0.2747127 0.2758621 0.2770115 0.2758621 0.2724138 0.2724138 0.2724138 0.2724138 0.2678161 0.2701149 0.2724138 0.2712644 0.2735632 0.2735632 0.2747127 0.272597 0.2735928 0.2713491 0.2725805 0.2744667 0.2731099 0.3005413 0.3063895 0.3105377 0.3119798 0.3144822 0.3155648 0.3166619 0.3175538 0.3166153 0.3151068 0.315431 0.3151948 0.3174561 0.3161202 0.3130209 0.3177638 0.3156947 0.317986 0.3186463 0.3185415 0.3149652 0.3128991 0.3118114 0.317386 0.3170483 0.3228119 0.3252322 0.3262822 0.326645 0.3258276 0.3269865 0.3264368 0.3321839 0.3298851 -9999 -9999 -9999 -9999 -9999 -9999 -9999 -9999 -9999 -9999 -9999 -9999 -9999 -9999 -9999 -9999 -9999 -9999 -9999 -9999 -9999 -9999 -9999 -9999 -9999 -9999 -9999 -9999 -9999 -9999 -9999
-9999 -9999 -9999 -9999 -9999 -9999 -9999 -9999 -9999 -9999 -9999 -9999 -9999 -9999 -9999 -9999 -9999 -9999 -9999 -9999 -9999 -9999 -9999 -9999 0.2957111 0.2965658 0.2954509 0.2954509 0.2946811 0.2950547 0.2960966 0.2964748 0.2957992 0.2998901 0.305475 0.2990762 0.2916007 0.2899335 0.2893711 0.2910844 0.2960292 0.297001 0.2965997 0.2964771 0.2963172 0.2969027 0.2984992 0.2971833 0.297121 0.2966343 0.2965084 0.295729 0.29642 0.2966494 0.2963486 0.2969631 0.2997473 0.2976037 0.2966543 0.2968433 0.2968978 0.2959851 0.2969024 0.2973572 0.295552 0.2967299 0.296817 0.2965409 0.2974899 0.2968552 0.2970393 0.2973615 0.2984936 0.2974081 0.2978677 0.2971317 0.2967194 0.2981383 0.2977754 0.2982632 0.2980484 0.2977408 0.2978128 0.2997689 0.2992849 0.2961517 0.2923893 0.2931631 0.2935634 0.2867712 0.2821874 0.2757664 0.2715126 0.2712644 0.2724138 0.2747127 0.2735632 0.2724138 0.2724138 0.2724138 0.2735632 0.2724138 0.2724138 0.2747127 0.2724138 0.2724138 0.2689655 0.2724138 0.2724138 0.2735632 0.2735632 0.2724138 0.2724138 0.2724138 0.2712644 0.2678161 0.2735632 0.2724138 0.2712644 0.2712644 0.2701149 0.2678161 0.2678161 0.2701149 0.2689655 0.2712644 0.2712644 0.2689655 0.2689655 0.2701149 0.2712644 0.2701149 0.2689655 0.2701149 0.2689655 0.2712644 0.2701149 0.2689655 0.2689655 0.2712644 0.2701149 0.2689655 0.2666667 0.2678161 0.2701149 0.2701149 0.2701149 0.2689655 0.2666667 0.2689655 0.2701149 0.2689655 0.2689655 0.2678161 0.2678161 0.2724138 0.2712644 0.2689655 0.2724138 0.2678161 0.2689655 0.2689655 0.2701149 0.2678161 0.2689655 0.2678161 0.2666667 0.2678161 0.2678161 0.2678161 0.2678161 0.2689655 0.2678161 0.2666667 0.2655172 0.2678161 0.2701149 0.2689655 0.2655172 0.2643678 0.2701149 0.2712644 0.2678161 0.2689655 0.2689655 0.2701149 0.2689655 0.2701149 0.2712644 0.2701149 0.2735632 0.2724138 0.2724138 0.2735632 0.2724138 0.2724138 0.2712644 0.2701149 0.2758621 0.2712644 0.2724138 0.2758621 0.2724138 0.2747127 0.2724138 0.2747127 0.2735632 0.2758621 0.2747127 0.2758621 0.2724138 0.2712644 0.2747127 0.2747127 0.2735632 0.2735632 0.2758621 0.2758621 0.2770115 0.2758621 0.2758621 0.2735632 0.2735632 0.2724138 0.2724138 0.2678161 0.2724138 0.2712644 0.2747127 0.2724138 0.2735632 0.2712644 0.2721643 0.2736365 0.2730362 0.2726036 0.2726607 0.2730067 0.3022882 0.3074682 0.3100142 0.3113695 0.311033 0.3158801 0.3154289 0.3175194 0.3151399 0.3142329 0.3145354 0.3151782 0.3177682 0.3182488 0.318435 0.3179977 0.3187527 0.3175449 0.3167256 0.3190802 0.3175183 0.3158823 0.3126015 0.3166011 0.3164255 0.3215401 0.3263198 0.3263691 0.3244229 0.3280654 0.3267579 0.3264368 -9999 -9999 -9999 -9999 -9999 -9999 -9999 -9999 -9999 -9999 -9999 -9999 -9999 -9999 -9999 -9999 -9999 -9999 -9999 -9999 -9999 -9999 -9999 -9999 -9999 -9999 -9999 -9999 -9999 -9999 -9999 -9999 -9999
-9999 -9999 -9999 -9999 -9999 -9999 -9999 -9999 -9999 -9999 -9999 -9999 -9999 -9999 -9999 -9999 -9999 -9999 -9999 -9999 -9999 -9999 -9999 -9999 -9999 0.2963859 0.2953305 0.29486 0.2938929 0.293747 0.2964446 0.2970347 0.2966806 0.2990637 0.3032095 0.2970961 0.291446 0.2903983 0.2895384 0.2922411 0.2947488 0.2960939 0.2966339 0.2972237 0.2972532 0.2958144 0.2959641 0.2975832 0.2987307 0.2978519 0.2971931 0.2977577 0.2969519 0.2962137 0.2965032 0.2995925 0.3016583 0.2969334 0.2961812 0.2955173 0.2956324 0.2956422 0.2971819 0.2973723 0.296581 0.2983936 0.2964347 0.2973912 0.2967403 0.2990285 0.2971911 0.2966191 0.2984936 0.2974665 0.2977766 0.2967706 0.2957621 0.2958359 0.2966672 0.2969261 0.2960167 0.2990476 0.2984508 0.2972026 0.2961906 0.2915023 0.2887512 0.2884372 0.2896909 0.2805287 0.2799053 0.273581 0.2712787 0.2712644 0.2724138 0.2701149 0.2712644 0.2735632 0.2724138 0.2689655 0.2724138 0.2712644 0.2712644 0.2724138 0.2724138 0.2724138 0.2701149 0.2724138 0.2712644 0.2735632 0.2735632 0.2724138 0.2724138 0.2701149 0.2712644 0.2712644 0.2689655 0.2701149 0.2701149 0.2689655 0.2701149 0.2689655 0.2678161 0.2701149 0.2701149 0.2689655 0.2701149 0.2689655 0.2701149 0.2701149 0.2689655 0.2701149 0.2712644 0.2701149 0.2689655 0.2701149 0.2701149 0.2689655 0.2689655 0.2701149 0.2701149 0.2678161 0.2678161 0.2678161 0.2678161 0.2701149 0.2712644 0.2701149 0.2701149 0.2701149 0.2666667 0.2689655 0.2689655 0.2678161 0.2701149 0.2689655 0.2666667 0.2712644 0.2712644 0.2701149 0.2701149 0.2678161 0.2701149 0.2689655 0.2689655 0.2712644 0.2689655 0.2678161 0.2701149 0.2655172 0.2689655 0.2689655 0.2678161 0.2678161 0.2678161 0.2701149 0.2701149 0.2689655 0.2666667 0.2655172 0.2689655 0.2678161 0.2689655 0.2666667 0.2666667 0.2689655 0.2701149 0.2689655 0.2689655 0.2689655 0.2724138 0.2712644 0.2712644 0.2735632 0.2712644 0.2701149 0.2747127 0.2701149 0.2724138 0.2758621 0.2724138 0.2701149 0.2724138 0.2712644 0.2724138 0.2747127 0.2724138 0.2735632 0.2724138 0.2724138 0.2712644 0.2747127 0.2735632 0.2735632 0.2712644 0.2747127 0.2735632 0.2747127 0.2758621 0.2770115 0.2701149 0.2724138 0.2735632 0.2712644 0.2712644 0.2712644 0.2701149 0.2701149 0.2724138 0.2724138 0.2724138 0.2747127 0.2728021 0.2734649 0.2727366 0.2716146 0.2744496 0.2814287 0.3042437 0.307466 0.3047304 0.3062125 0.3086323 0.3138273 0.3164156 0.3173441 0.3151127 0.315605 0.3165515 0.3150476 0.3166099 0.316078 0.3164388 0.3176102 0.3191867 0.3169126 0.317141 0.3195439 0.3195837 0.31862 0.3149222 0.3171045 0.3171917 0.3222398 0.3252615 0.3232532 0.3250325 0.3258694 0.3249651 -9999 -9999 -9999 -9999 -9999 -9999 -9999 -9999 -9999 -9999 -9999 -9999 -9999 -9999 -9999 -9999 -9999 -9999 -9999 -9999 -9999 -9999 -9999 -9999 -9999 -9999 -9999 -9999 -9999 -9999 -9999 -9999 -9999 -9999
-9999 -9999 -9999 -9999 -9999 -9999 -9999 -9999 -9999 -9999 -9999 -9999 -9999 -9999 -9999 -9999 -9999 -9999 -9999 -9999 -9999 -9999 -9999 -9999 -9999 -9999 0.2953961 0.2954296 0.2959 0.295428 0.2973799 0.2970476 0.2981145 0.2972002 0.295393 0.2955929 0.2927843 0.2906314 0.2918619 0.2929508 0.2929187 0.2960939 0.2974482 0.2965254 0.2967095 0.2957789 0.2956215 0.295669 0.297609 0.3002414 0.298309 0.2970969 0.2964423 0.2974024 0.2974992 0.2995929 0.2977415 0.2953579 0.2944567 0.2954516 0.2954128 0.2956422 0.2968363 0.2977145 0.2970254 0.2967866 0.2965711 0.300303 0.295871 0.2977079 0.2966377 0.2964374 0.297006 0.2971354 0.2964696 0.2957417 0.295631 0.2965136 0.2965035 0.2959902 0.2966752 0.299614 0.2966764 0.2982259 0.2974204 0.2972044 0.2915792 0.2897441 0.2830457 0.2772224 0.2752976 0.2724138 0.2712644 0.2724138 0.2701149 0.2689655 0.2701149 0.2712644 0.2724138 0.2724138 0.2712644 0.2701149 0.2701149 0.2712644 0.2724138 0.2712644 0.2712644 0.2712644 0.2712644 0.2724138 0.2735632 0.2724138 0.2724138 0.2701149 0.2701149 0.2701149 0.2689655 0.2689655 0.2689655 0.2701149 0.2689655 0.2701149 0.2701149 0.2712644 0.2701149 0.2701149 0.2701149 0.2689655 0.2689655 0.2724138 0.2701149 0.2678161 0.2712644 0.2678161 0.2689655 0.2666667 0.2678161 0.2678161 0.2678161 0.2701149 0.2701149 0.2689655 0.2678161 0.2678161 0.2689655 0.2689655 0.2666667 0.2678161 0.2712644 0.2689655 0.2678161 0.2689655 0.2701149 0.2689655 0.2678161 0.2678161 0.2666667 0.2678161 0.2689655 0.2678161 0.2655172 0.2689655 0.2678161 0.2689655 0.2701149 0.2724138 0.2655172 0.2689655 0.2689655 0.2678161 0.2655172 0.2689655 0.2678161 0.2666667 0.2689655 0.2701149 0.2701149 0.2678161 0.2643678 0.2701149 0.2701149 0.2689655 0.2689655 0.2678161 0.2678161 0.2701149 0.2678161 0.2701149 0.2689655 0.2689655 0.2712644 0.2712644 0.2712644 0.2712644 0.2689655 0.2701149 0.2701149 0.2701149 0.2712644 0.2735632 0.2747127 0.2724138 0.2724138 0.2747127 0.2712644 0.2712644 0.2735632 0.2735632 0.2724138 0.2735632 0.2712644 0.2735632 0.2724138 0.2735632 0.2735632 0.2724138 0.2712644 0.2735632 0.2770115 0.2758621 0.2712644 0.2724138 0.2735632 0.2712644 0.2712644 0.2701149 0.2655172 0.2689655 0.2701149 0.2724138 0.2724138 0.2735632 0.272991 0.2734649 0.2720379 0.2734282 0.27764 0.2965704 0.289786 0.2985725 0.3098814 0.3125347 0.3138543 0.3142673 0.315894 0.3141854 0.3147409 0.3147995 0.3154297 0.3145089 0.3165721 0.3161952 0.3164949 0.316969 0.316903 0.316614 0.317032 0.3186767 0.3190408 0.3191736 0.3180406 0.3157864 0.3169667 0.3210502 0.3243726 0.3225381 0.3244839 0.3247387 -9999 -9999 -9999 -9999 -9999 -9999 -9999 -9999 -9999 -9999 -9999 -9999 -9999 -9999 -9999 -9999 -9999 -9999 -9999 -9999 -9999 -9999 -9999 -9999 -9999 -9999 -9999 -9999 -9999 -9999 -9999 -9999 -9999 -9999 -9999
-9999 -9999 -9999 -9999 -9999 -9999 -9999 -9999 -9999 -9999 -9999 -9999 -9999 -9999 -9999 -9999 -9999 -9999 -9999 -9999 -9999 -9999 -9999 -9999 -9999 -9999 -9999 -9999 0.2969342 0.2958406 0.2973799 0.2979425 0.2981067 0.2974623 0.2933201 0.2954418 0.2890144 0.2899196 0.2911925 0.2952964 0.2957636 0.2965809 0.2960056 0.2960382 0.2964766 0.295703 0.2956139 0.2963511 0.2958678 0.296341 0.2973489 0.2977813 0.2987924 0.2984128 0.297034 0.2968851 0.2964734 0.2962663 0.2959555 0.2963833 0.295648 0.296288 0.29706 0.2978446 0.2968467 0.2960373 0.2974271 0.300948 0.2964933 0.2984077 0.2955928 0.2956472 0.2965796 0.2966298 0.2965896 0.2967695 0.2954963 0.2973837 0.2975402 0.2981356 0.299244 0.2996798 0.2973119 0.2974207 0.297368 0.2966287 0.2894136 0.2844651 0.2822706 0.2771583 0.2758621 0.2724138 0.2712644 0.2724138 0.2724138 0.2701149 0.2712644 0.2701149 0.2701149 0.2724138 0.2701149 0.2701149 0.2689655 0.2701149 0.2724138 0.2735632 0.2735632 0.2712644 0.2735632 0.2724138 0.2724138 0.2724138 0.2735632 0.2735632 0.2712644 0.2701149 0.2701149 0.2701149 0.2689655 0.2689655 0.2701149 0.2689655 0.2689655 0.2678161 0.2689655 0.2701149 0.2724138 0.2701149 0.2712644 0.2678161 0.2701149 0.2712644 0.2689655 0.2689655 0.2712644 0.2689655 0.2678161 0.2701149 0.2678161 0.2678161 0.2666667 0.2701149 0.2678161 0.2689655 0.2666667 0.2655172 0.2643678 0.2666667 0.2689655 0.2689655 0.2655172 0.2655172 0.2678161 0.2701149 0.2701149 0.2678161 0.2655172 0.2666667 0.2655172 0.2678161 0.2689655 0.2678161 0.2678161 0.2678161 0.2689655 0.2678161 0.2701149 0.2678161 0.2666667 0.2678161 0.2643678 0.2689655 0.2678161 0.2701149 0.2689655 0.2666667 0.2655172 0.2701149 0.2689655 0.2701149 0.2689655 0.2655172 0.2724138 0.2701149 0.2701149 0.2689655 0.2701149 0.2689655 0.2701149 0.2701149 0.2701149 0.2712644 0.2712644 0.2701149 0.2689655 0.2701149 0.2724138 0.2724138 0.2724138 0.2712644 0.2689655 0.2701149 0.2724138 0.2758621 0.2712644 0.2724138 0.2724138 0.2747127 0.2712644 0.2735632 0.2724138 0.2724138 0.2735632 0.2735632 0.2735632 0.2724138 0.2724138 0.2724138 0.2735632 0.2701149 0.2724138 0.2712644 0.2735632 0.2701149 0.2689655 0.2724138 0.2735632 0.2689655 0.2735632 0.2724138 0.2712644 0.2712644 0.2731979 0.2725539 0.2716585 0.2715823 0.2861612 0.2964132 0.2921374 0.2990767 0.3072924 0.3125829 0.3147286 0.3145278 0.3148893 0.3135295 0.3138345 0.3138825 0.3137946 0.3145494 0.3141445 0.3161544 0.3152671 0.3155558 0.3155695 0.3170402 0.3178836 0.3190916 0.3196286 0.3190437 0.3206738 0.3214355 0.3206912 0.3226366 0.3207588 0.3231835 -9999 -9999 -9999 -9999 -9999 -9999 -9999 -9999 -9999 -9999 -9999 -9999 -9999 -9999 -9999 -9999 -9999 -9999 -9999 -9999 -9999 -9999 -9999 -9999 -9999 -9999 -9999 -9999 -9999 -9999 -9999 -9999 -9999 -9999 -9999 -9999 -9999
-9999 -9999 -9999 -9999 -9999 -9999 -9999 -9999 -9999 -9999 -9999 -9999 -9999 -9999 -9999 -9999 -9999 -9999 -9999 -9999 -9999 -9999 -9999 -9999 -9999 -9999 -9999 -9999 -9999 -9999 -9999 -9999 -9999 0.2956097 0.2913771 0.2898042 0.2881559 0.2903594 0.2921409 0.2934761 0.2934463 0.293187 0.2948486 0.2947994 0.2956074 0.2953345 0.2962217 0.296322 0.2957751 0.2955429 0.2968932 0.2971158 0.299095 0.2980667 0.2974448 0.2967758 0.2985283 0.2976674 0.2980265 0.2971728 0.2963511 0.2969543 0.2980067 0.2991923 0.2969188 0.2968037 0.3001923 0.2998792 0.2980177 0.2979027 0.2957996 0.296475 0.2964745 0.2956419 0.2964967 0.2971897 0.2961218 0.2979623 0.2995239 0.2996198 0.2990152 0.2985855 0.2970212 0.2992063 0.2974508 0.2981204 0.2891955 0.2866901 0.2818877 0.2770358 0.2769432 0.2724138 0.2712644 0.2712644 0.2712644 0.2701149 0.2712644 0.2712644 0.2689655 0.2689655 0.2701149 0.2689655 -9999 -9999 -9999 -9999 -9999 -9999 -9999 -9999 -9999 -9999 -9999 -9999 0.2701149 0.2701149 0.2678161 0.2701149 0.2689655 0.2701149 0.2712644 0.2701149 0.2689655 0.2689655 0.2701149 0.2712644 0.2712644 0.2712644 0.2701149 0.2689655 0.2701149 0.2712644 0.2689655 0.2689655 0.2701149 0.2689655 0.2678161 0.2678161 0.2701149 0.2689655 0.2678161 0.2678161 0.2689655 0.2689655 0.2666667 0.2666667 0.2689655 0.2655172 0.2655172 0.2655172 0.2666667 0.2666667 0.2724138 0.2689655 0.2701149 0.2678161 0.2689655 0.2678161 0.2689655 0.2655172 0.2689655 0.2666667 0.2678161 0.2678161 0.2678161 0.2712644 0.2666667 0.2666667 0.2689655 0.2655172 0.2666667 0.2666667 0.2701149 0.2689655 0.2643678 0.2701149 0.2724138 0.2678161 0.2701149 0.2689655 0.2666667 0.2678161 0.2666667 0.2701149 0.2678161 0.2701149 0.2701149 0.2678161 0.2689655 0.2689655 0.2689655 0.2689655 0.2701149 0.2678161 0.2678161 0.2701149 0.2724138 0.2701149 0.2712644 0.2712644 0.2735632 0.2689655 0.2712644 0.2724138 0.2747127 0.2701149 0.2712644 0.2701149 0.2724138 0.2724138 0.2724138 0.2724138 0.2689655 0.2724138 0.2747127 0.2724138 0.2735632 0.2701149 0.2701149 0.2712644 0.2712644 0.2712644 0.2701149 0.2712644 0.2724138 0.2632184 0.2655172 0.2724138 0.2724138 0.2724138 0.2735632 0.2724138 0.2718959 0.2728989 0.2711528 0.2723802 0.2845552 0.3088181 0.3028699 0.2979704 0.3065243 0.312388 0.3147858 0.3137571 0.3147521 0.3131526 0.3169833 0.3142713 0.312797 0.3129126 0.3138089 0.3153694 0.3159707 0.3143265 0.3163938 0.3171983 0.3172449 0.3180589 0.3185225 0.3185769 0.3208022 0.3214355 0.321812 0.3219371 0.3217777 -9999 -9999 -9999 -9999 -9999 -9999 -9999 -9999 -9999 -9999 -9999 -9999 -9999 -9999 -9999 -9999 -9999 -9999 -9999 -9999 -9999 -9999 -9999 -9999 -9999 -9999 -9999 -9999 -9999 -9999 -9999 -9999 -9999 -9999 -9999 -9999 -9999 -9999
-9999 -9999 -9999 -9999 -9999 -9999 -9999 -9999 -9999 -9999 -9999 -9999 -9999 -9999 -9999 -9999 -9999 -9999 -9999 -9999 -9999 -9999 -9999 -9999 -9999 -9999 -9999 -9999 -9999 -9999 -9999 -9999 -9999 -9999 -9999 -9999 -9999 0.2919242 0.2942312 0.2919708 0.2910541 0.2932067 0.2932421 0.2927839 0.2957044 0.2939904 0.2964493 0.2954196 0.2962968 0.2956631 0.2966142 0.2962856 0.29694 0.2970754 0.2969352 0.2964314 0.2959141 0.2959881 0.2980265 0.2969031 0.2977687 0.2995843 0.3028162 0.3001184 0.2983718 0.2999401 0.2992139 0.299189 0.2989316 0.2981706 0.2974231 0.29646 0.2960601 0.2960601 0.2960442 0.2964875 0.2969496 0.2985148 0.2997502 0.2984761 0.2969953 0.2955083 0.2965659 0.2972962 0.2939264 0.2908205 0.288315 0.2860854 0.2790156 0.2765979 0.2758621 0.2712644 0.2724138 0.2701149 0.2712644 0.2712644 0.2712644 0.2712644 0.2689655 0.2701149 -9999 -9999 -9999 -9999 -9999 -9999 -9999 -9999 -9999 -9999 -9999 -9999 -9999 -9999 0.2712644 0.2701149 0.2689655 0.2712644 0.2712644 0.2689655 0.2689655 0.2689655 0.2689655 0.2701149 0.2689655 0.2701149 0.2701149 0.2701149 0.2701149 0.2689655 0.2689655 0.2701149 0.2689655 0.2678161 0.2701149 0.2701149 0.2701149 0.2689655 0.2678161 0.2689655 0.2666667 0.2678161 0.2666667 0.2701149 0.2701149 0.2666667 0.2666667 0.2666667 0.2655172 0.2678161 0.2655172 0.2666667 0.2678161 0.2701149 0.2666667 0.2678161 0.2666667 0.2666667 0.2666667 0.2655172 0.2689655 0.2689655 0.2678161 0.2678161 0.2701149 0.2655172 0.2655172 0.2689655 0.2689655 0.2666667 0.2666667 0.2666667 0.2643678 0.2655172 0.2712644 0.2678161 0.2689655 0.2701149 0.2678161 0.2678161 0.2678161 0.2701149 0.2678161 0.2689655 0.2689655 0.2724138 0.2689655 0.2666667 0.2678161 0.2689655 0.2689655 0.2701149 0.2689655 0.2701149 0.2712644 0.2701149 0.2724138 0.2712644 0.2701149 0.2724138 0.2712644 0.2712644 0.2712644 0.2735632 0.2724138 0.2724138 0.2724138 0.2724138 0.2712644 0.2701149 0.2735632 0.2724138 0.2701149 0.2747127 0.2735632 0.2701149 0.2701149 0.2689655 0.2689655 0.2701149 0.2724138 0.2724138 0.2724138 0.2747127 0.2735632 0.2701149 0.2724138 0.2712644 0.2724138 0.2735632 0.2724138 0.2712644 0.2712617 0.2724043 0.2718757 0.2729108 0.2898891 0.3082068 0.3082228 0.309168 0.3099183 0.3127715 0.3137078 0.3128174 0.3142325 0.3146045 0.3133948 0.3131272 0.3124571 0.3137022 0.3138089 0.3145152 0.3147624 0.3150634 0.3169205 0.3173662 0.3176872 0.3179527 0.3236331 0.3214839 0.3218238 0.322681 0.3213714 0.3218237 -9999 -9999 -9999 -9999 -9999 -9999 -9999 -9999 -9999 -9999 -9999 -9999 -9999 -9999 -9999 -9999 -9999 -9999 -9999 -9999 -9999 -9999 -9999 -9999 -9999 -9999 -9999 -9999 -9999 -9999 -9999 -9999 -9999 -9999 -9999 -9999 -9999 -9999 -9999
-9999 -9999 -9999 -9999 -9999 -9999 -9999 -9999 -9999 -9999 -9999 -9999 -9999 -9999 -9999 -9999 -9999 -9999 -9999 -9999 -9999 -9999 -9999 -9999 -9999 -9999 -9999 -9999 -9999 -9999 -9999 -9999 -9999 -9999 -9999 -9999 -9999 -9999 0.2949801 0.2951414 0.2962557 0.2940064 0.2949581 0.2961844 0.2957672 0.2953207 0.2955863 0.295331 0.2963067 0.2957098 0.2956264 0.2967329 0.2986436 0.2971764 0.2967357 0.2986426 0.2970087 0.2965577 0.2965199 0.3009035 0.3002101 0.3000439 0.3012135 0.2982489 0.2990375 0.2999677 0.2987818 0.299675 0.3008245 0.3018471 0.298449 0.295689 0.2959277 0.2954413 0.2965625 0.2954617 0.2970559 0.2965697 0.299244 0.2979478 0.2958545 0.2926667 0.294633 0.2929386 0.2928571 0.2878874 0.2852001 0.2817766 0.2758621 0.2735632 0.2712644 0.2724138 0.2712644 0.2712644 0.2712644 0.2701149 0.2689655 0.2689655 0.2701149 0.2701149 -9999 -9999 -9999 -9999 -9999 -9999 -9999 -9999 -9999 -9999 -9999 -9999 -9999 -9999 -9999 -9999 0.2701149 0.2712644 0.2712644 0.2701149 0.2701149 0.2689655 0.2678161 0.2701149 0.2689655 0.2701149 0.2712644 0.2701149 0.2701149 0.2689655 0.2712644 0.2689655 0.2678161 0.2689655 0.2678161 0.2678161 0.2712644 0.2701149 0.2689655 0.2678161 0.2678161 0.2689655 0.2701149 0.2666667 0.2689655 0.2678161 0.2701149 0.2666667 0.2678161 0.2655172 0.2666667 0.2655172 0.2678161 0.2666667 0.2666667 0.2701149 0.2689655 0.2643678 0.2655172 0.2655172 0.2655172 0.2655172 0.2666667 0.2666667 0.2666667 0.2689655 0.2666667 0.2689655 0.2666667 0.2678161 0.2643678 0.2678161 0.2689655 0.2666667 0.2678161 0.2678161 0.2655172 0.2689655 0.2655172 0.2655172 0.2666667 0.2689655 0.2689655 0.2689655 0.2701149 0.2689655 0.2678161 0.2678161 0.2701149 0.2678161 0.2689655 0.2689655 0.2678161 0.2689655 0.2701149 0.2701149 0.2701149 0.2712644 0.2712644 0.2724138 0.2724138 0.2712644 0.2724138 0.2712644 0.2724138 0.2701149 0.2724138 0.2724138 0.2735632 0.2724138 0.2735632 0.2701149 0.2724138 0.2735632 0.2701149 0.2689655 0.2689655 0.2712644 0.2724138 0.2712644 0.2747127 0.2712644 0.2712644 0.2758621 0.2701149 0.2701149 0.2735632 0.2724138 0.2712644 0.2735632 0.2724138 0.2712644 0.2705457 0.272226 0.2715668 0.2723035 0.2946337 0.2984681 0.3102443 0.3106204 0.3113229 0.3101781 0.3115146 0.3152538 0.3149425 -9999 -9999 -9999 -9999 0.312316 0.3140118 0.3147615 0.3127798 0.3158766 0.3157305 0.3176737 0.3169675 0.3185518 0.320277 0.3225158 0.3202602 0.3200005 0.3218391 -9999 -9999 -9999 -9999 -9999 -9999 -9999 -9999 -9999 -9999 -9999 -9999 -9999 -9999 -9999 -9999 -9999 -9999 -9999 -9999 -9999 -9999 -9999 -9999 -9999 -9999 -9999 -9999 -9999 -9999 -9999 -9999 -9999 -9999 -9999 -9999 -9999 -9999 -9999 -9999
-9999 -9999 -9999 -9999 -9999 -9999 -9999 -9999 -9999 -9999 -9999 -9999 -9999 -9999 -9999 -9999 -9999 -9999 -9999 -9999 -9999 -9999 -9999 -9999 -9999 -9999 -9999 -9999 -9999 -9999 -9999 -9999 -9999 -9999 -9999 -9999 -9999 -9999 -9999 0.2960264 0.296114 0.2961955 0.2964301 0.2958532 0.2956694 0.2954452 0.2954086 0.2961004 0.2961905 0.2956302 0.2959168 0.2971419 0.2992962 0.2970831 0.2966827 0.2975886 0.2970411 0.2969168 0.296175 0.2977037 0.2981704 0.3029023 0.3002324 0.2980252 0.297886 0.298481 0.2969717 0.2964015 0.3002133 0.3009113 0.2977306 0.2955965 0.2955358 0.2963536 0.296521 0.2961504 0.2969489 0.2971111 0.2965398 0.2978475 0.2964202 0.2901197 0.2908194 0.2910281 0.2897025 0.2878263 0.287039 0.2817766 0.2804598 0.2724138 0.2701149 0.2701149 0.2712644 0.2701149 0.2701149 0.2689655 0.2678161 0.2678161 0.2678161 -9999 -9999 -9999 -9999 -9999 -9999 -9999 -9999 -9999 -9999 -9999 -9999 -9999 -9999 -9999 -9999 -9999 -9999 0.2701149 0.2701149 0.2689655 0.2689655 0.2689655 0.2678161 0.2678161 0.2678161 0.2689655 0.2689655 0.2701149 0.2689655 0.2678161 0.2689655 0.2678161 0.2689655 0.2689655 0.2689655 0.2689655 0.2678161 0.2678161 0.2643678 0.2678161 0.2678161 0.2689655 0.2701149 0.2666667 0.2655172 0.2678161 0.2701149 0.2701149 0.2701149 0.2666667 0.2678161 0.2655172 0.2666667 0.2666667 0.2655172 0.2666667 0.2666667 0.2666667 0.2655172 0.2666667 0.2655172 0.2666667 0.2655172 0.2678161 0.2666667 0.2689655 0.2689655 0.2643678 0.2643678 0.2609195 0.2643678 0.2655172 0.2678161 0.2678161 0.2678161 0.2666667 0.2678161 0.2678161 0.2666667 0.2666667 0.2689655 0.2712644 0.2655172 0.2689655 0.2689655 0.2678161 0.2678161 0.2701149 0.2689655 0.2666667 0.2678161 0.2689655 0.2689655 0.2724138 0.2689655 0.2701149 0.2701149 0.2701149 0.2712644 0.2701149 0.2712644 0.2701149 0.2724138 0.2735632 0.2724138 0.2712644 0.2735632 0.2712644 0.2735632 0.2724138 0.2735632 0.2724138 0.2735632 0.2701149 0.2689655 0.2689655 0.2678161 0.2689655 0.2712644 0.2712644 0.2712644 0.2724138 0.2735632 0.2701149 0.2666667 0.2701149 0.2712644 0.2712644 0.2724138 0.2712644 0.2712644 0.2712644 0.2723911 0.2713133 0.2715199 0.2751278 0.2948312 0.3013272 0.3112654 0.3102525 0.3107003 0.312044 -9999 -9999 -9999 -9999 -9999 -9999 -9999 -9999 0.3114778 0.3151842 0.3136824 0.3145416 0.3159087 0.3168417 0.3194096 0.3179648 0.320277 0.3229745 -9999 -9999 -9999 -9999 -9999 -9999 -9999 -9999 -9999 -9999 -9999 -9999 -9999 -9999 -9999 -9999 -9999 -9999 -9999 -9999 -9999 -9999 -9999 -9999 -9999 -9999 -9999 -9999 -9999 -9999 -9999 -9999 -9999 -9999 -9999 -9999 -9999 -9999 -9999 -9999 -9999 -9999 -9999
-9999 -9999 -9999 -9999 -9999 -9999 -9999 -9999 -9999 -9999 -9999 -9999 -9999 -9999 -9999 -9999 -9999 -9999 -9999 -9999 -9999 -9999 -9999 -9999 -9999 -9999 -9999 -9999 -9999 -9999 -9999 -9999 -9999 -9999 -9999 -9999 -9999 -9999 -9999 -9999 -9999 0.296706 0.2968641 0.2979976 0.2957277 0.2965819 0.2975054 0.2975317 0.296599 0.2952148 0.2964996 0.296758 0.2964805 0.2961416 0.2965286 0.2975886 0.2964737 0.297372 0.2974085 0.2991318 0.2982215 0.2999117 0.2989746 0.2964794 0.2962331 0.2964991 0.2968272 0.2954495 0.2980759 0.3005927 0.3004 0.2962976 0.295499 0.2964737 0.2961784 0.2962962 0.296499 0.2965823 0.295952 0.2967991 0.2941525 0.2912445 0.2885337 0.288198 0.2905795 0.2890287 0.2878403 0.2852938 0.2758621 0.2724138 0.2701149 0.2701149 0.2712644 0.2701149 0.2701149 0.2689655 0.2678161 -9999 -9999 -9999 -9999 -9999 -9999 -9999 -9999 -9999 -9999 -9999 -9999 -9999 -9999 -9999 -9999 -9999 -9999 -9999 -9999 -9999 0.2724138 0.2701149 0.2689655 0.2735632 0.2666667 0.2689655 0.2678161 0.2678161 0.2689655 0.2701149 0.2701149 0.2701149 0.2701149 0.2689655 0.2712644 0.2701149 0.2701149 0.2678161 0.2689655 0.2712644 0.2689655 0.2678161 0.2678161 0.2678161 0.2666667 0.2678161 0.2678161 0.2666667 0.2701149 0.2689655 0.2678161 0.2666667 0.2689655 0.2643678 0.2643678 0.2666667 0.2655172 0.2689655 0.2666667 0.2666667 0.2643678 0.2666667 0.2689655 0.2666667 0.2689655 0.2666667 0.2678161 0.2655172 0.2643678 0.2655172 0.2689655 0.2666667 0.2678161 0.2666667 0.2701149 0.2678161 0.2655172 0.2678161 0.2666667 0.2666667 0.2689655 0.2701149 0.2701149 0.2689655 0.2666667 0.2655172 0.2689655 0.2678161 0.2678161 0.2689655 0.2678161 0.2724138 0.2701149 0.2701149 0.2689655 0.2689655 0.2689655 0.2689655 0.2712644 0.2701149 0.2689655 0.2724138 0.2712644 0.2712644 0.2689655 0.2701149 0.2712644 0.2724138 0.2712644 0.2701149 0.2689655 0.2701149 0.2735632 0.2735632 0.2701149 0.2689655 0.2701149 0.2701149 0.2701149 0.2701149 0.2689655 0.2712644 0.2724138 0.2689655 0.2712644 0.2689655 0.2689655 0.2666667 0.2735632 0.2712644 0.2712644 0.2712644 0.2712644 0.2712655 0.2716553 0.2720897 0.2720419 0.2731098 0.3070208 0.306663 0.3105258 -9999 -9999 -9999 -9999 -9999 -9999 -9999 -9999 -9999 -9999 -9999 -9999 0.3129655 0.3136943 0.3138228 0.3160992 0.3166165 0.3164703 0.317701 0.3189839 0.3217264 -9999 -9999 -9999 -9999 -9999 -9999 -9999 -9999 -9999 -9999 -9999 -9999 -9999 -9999 -9999 -9999 -9999 -9999 -9999 -9999 -9999 -9999 -9999 -9999 -9999 -9999 -9999 -9999 -9999 -9999 -9999 -9999 -9999 -9999 -9999 -9999 -9999 -9999 -9999 -9999 -9999 -9999 -9999
-9999 -9999 -9999 -9999 -9999 -9999 -9999 -9999 -9999 -9999 -9999 -9999 -9999 -9999 -9999 -9999 -9999 -9999 -9999 -9999 -9999 -9999 -9999 -9999 -9999 -9999 -9999 -9999 -9999 -9999 -9999 -9999 -9999 -9999 -9999 -9999 -9999 -9999 -9999 -9999 -9999 -9999 0.2964854 0.2972139 0.2957277 0.2961277 0.2963124 0.2967258 0.2970726 0.296353 0.2966334 0.2957271 0.296432 0.2961101 0.2965517 0.2956622 0.2958833 0.2965052 0.2965334 0.2999649 0.2990261 0.2990244 0.2993705 0.2959883 0.295448 0.2961539 0.2980359 0.2985631 0.2965384 0.2965502 0.2964014 0.2965864 0.2981377 0.2967471 0.2966319 0.2955081 0.2965603 0.2967096 0.2962582 0.2962168 0.2940347 0.2924975 0.2858139 0.2871751 0.2836801 0.2857389 0.2813227 0.2758621 0.2735632 0.2701149 0.2724138 0.2689655 0.2724138 0.2689655 0.2701149 0.2701149 -9999 -9999 -9999 -9999 -9999 -9999 -9999 -9999 -9999 -9999 -9999 -9999 -9999 -9999 -9999 -9999 -9999 -9999 -9999 -9999 -9999 0.2701149 0.2712644 0.2712644 0.2724138 0.2747127 0.2735632 0.2724138 0.2678161 0.2678161 0.2678161 0.2678161 0.2712644 0.2701149 0.2701149 0.2689655 0.2712644 0.2701149 0.2701149 0.2678161 0.2666667 0.2689655 0.2655172 0.2666667 0.2678161 0.2666667 0.2643678 0.2643678 0.2689655 0.2701149 0.2678161 0.2655172 0.2655172 0.2678161 0.2678161 0.2689655 0.2678161 0.2655172 0.2678161 0.2666667 0.2655172 0.2666667 0.2655172 0.2655172 0.2666667 0.2666667 0.2678161 0.2678161 0.2678161 0.2643678 0.2632184 0.2701149 0.2689655 0.2666667 0.2678161 0.2689655 0.2666667 0.2666667 0.2666667 0.2678161 0.2666667 0.2712644 0.2701149 0.2689655 0.2678161 0.2701149 0.2666667 0.2689655 0.2689655 0.2678161 0.2689655 0.2678161 0.2724138 0.2712644 0.2689655 0.2689655 0.2701149 0.2701149 0.2701149 0.2724138 0.2701149 0.2701149 0.2735632 0.2712644 0.2701149 0.2701149 0.2793103 0.2689655 0.2724138 0.2678161 0.2712644 0.2701149 0.2689655 0.2701149 0.2735632 0.2701149 0.2689655 0.2689655 0.2689655 0.2701149 0.2701149 0.2712644 0.2689655 0.2712644 0.2724138 0.2758621 0.2724138 0.2724138 0.2689655 0.2735632 0.2724138 0.2701149 0.2701149 0.2701149 0.2701149 0.2709939 0.2709727 0.2713142 0.2724414 -9999 -9999 -9999 -9999 -9999 -9999 -9999 -9999 -9999 -9999 -9999 -9999 -9999 -9999 -9999 -9999 0.3131957 0.3143398 0.3143719 0.315345 0.3176162 0.3152384 0.3161045 0.3206206 -9999 -9999 -9999 -9999 -9999 -9999 -9999 -9999 -9999 -9999 -9999 -9999 -9999 -9999 -9999 -9999 -9999 -9999 -9999 -9999 -9999 -9999 -9999 -9999 -9999 -9999 -9999 -9999 -9999 -9999 -9999 -9999 -9999 -9999 -9999 -9999 -9999 -9999 -9999 -9999 -9999 -9999 -9999 -9999
-9999 -9999 -9999 -9999 -9999 -9999 -9999 -9999 -9999 -9999 -9999 -9999 -9999 -9999 -9999 -9999 -9999 -9999 -9999 -9999 -9999 -9999 -9999 -9999 -9999 -9999 -9999 -9999 -9999 -9999 -9999 -9999 -9999 -9999 -9999 -9999 -9999 -9999 -9999 -9999 -9999 -9999 -9999 0.296433 0.2962683 0.2956344 0.2956703 0.2958774 0.2968183 0.2967009 0.296575 0.2957895 0.2964334 0.2956683 0.2964604 0.2959224 0.2964486 0.297474 0.2973094 0.3006184 0.3012336 0.2961211 0.2995226 0.2958195 0.2954025 0.2966296 0.2983789 0.2981386 0.296498 0.2955637 0.296694 0.2955756 0.2975003 0.2956781 0.2966082 0.2955086 0.2958239 0.296303 0.2962726 0.2954023 -9999 0.2941123 0.2878223 0.2841454 0.2836801 0.2842491 0.2827586 0.2758621 0.2747127 0.2735632 0.2712644 0.2724138 0.2689655 0.2689655 0.2701149 -9999 -9999 -9999 -9999 -9999 -9999 -9999 -9999 -9999 -9999 -9999 -9999 -9999 -9999 -9999 -9999 -9999 -9999 -9999 0.2724138 0.2724138 0.2689655 0.2701149 0.2712644 0.2701149 0.2712644 0.2735632 0.2758621 0.2770115 0.2758621 0.2689655 0.2689655 0.2678161 0.2689655 0.2689655 0.2701149 0.2678161 0.2678161 0.2689655 0.2678161 0.2689655 0.2701149 0.2678161 0.2678161 0.2666667 0.2678161 0.2655172 0.2666667 0.2678161 0.2666667 0.2666667 0.2689655 0.2689655 0.2666667 0.2655172 0.2689655 0.2689655 0.2689655 0.2666667 0.2678161 0.2666667 0.2655172 0.2666667 0.2655172 0.2666667 0.2643678 0.2655172 0.2655172 0.2666667 0.2689655 0.2643678 0.2643678 0.2701149 0.2678161 0.2678161 0.2678161 0.2689655 0.2666667 0.2666667 0.2666667 0.2678161 0.2689655 0.2701149 0.2678161 0.2666667 0.2666667 0.2655172 0.2678161 0.2678161 0.2678161 0.2701149 0.2689655 0.2689655 0.2724138 0.2701149 0.2712644 0.2678161 0.2724138 0.2724138 0.2712644 0.2712644 0.2701149 0.2712644 0.2701149 0.2701149 0.2689655 0.2724138 0.2712644 0.2724138 0.2712644 0.2712644 0.2689655 0.2724138 0.2701149 0.2678161 0.2689655 0.2655172 0.2678161 0.2689655 0.2689655 0.2701149 0.2701149 0.2712644 0.2701149 0.2701149 0.2678161 0.2724138 0.2712644 0.2712644 0.2712644 0.2701149 0.2701149 0.2712644 0.2712644 0.2724138 0.2712644 0.2712438 0.272279 0.2717073 0.2806988 -9999 -9999 -9999 -9999 -9999 -9999 -9999 -9999 -9999 -9999 -9999 -9999 -9999 -9999 -9999 -9999 -9999 0.3147314 0.3164525 0.3180373 0.3161958 0.3152384 -9999 -9999 -9999 -9999 -9999 -9999 -9999 -9999 -9999 -9999 -9999 -9999 -9999 -9999 -9999 -9999 -9999 -9999 -9999 -9999 -9999 -9999 -9999 -9999 -9999 -9999 -9999 -9999 -9999 -9999 -9999 -9999 -9999 -9999 -9999 -9999 -9999 -9999 -9999 -9999 -9999 -9999 -9999 -9999 -9999 -9999
-9999 -9999 -9999 -9999 -9999 -9999 -9999 -9999 -9999 -9999 -9999 -9999 -9999 -9999 -9999 -9999 -9999 -9999 -9999 -9999 -9999 -9999 -9999 -9999 -9999 -9999 -9999 -9999 -9999 -9999 -9999 -9999 -9999 -9999 -9999 -9999 -9999 -9999 -9999 -9999 -9999 -9999 -9999 0.2977777 0.2975653 0.29667 0.2963907 0.296182 0.2968782 0.2965877 0.2974394 0.2966585 0.2962982 0.2962193 0.2964883 0.2965649 0.2966114 0.2986389 0.2969615 0.2977871 0.2977249 0.2958101 0.2985118 0.2957492 0.2960495 0.2978495 0.2986958 0.2991036 0.2975705 0.2956043 0.2974207 0.2954625 0.2958754 0.2956781 0.2964081 0.2934565 0.2958787 0.294038 -9999 -9999 -9999 -9999 -9999 -9999 -9999 -9999 -9999 -9999 -9999 0.2724138 0.2724138 0.2712644 0.2701149 0.2701149 0.2689655 0.2689655 0.2689655 -9999 -9999 -9999 -9999 -9999 -9999 -9999 -9999 -9999 -9999 -9999 -9999 -9999 -9999 -9999 -9999 0.2724138 0.2724138 0.2735632 0.2724138 0.2701149 0.2689655 0.2724138 0.2724138 0.2701149 0.2724138 0.2724138 0.2689655 0.2701149 0.2678161 0.2678161 0.2689655 0.2666667 0.2701149 0.2689655 0.2666667 0.2678161 0.2701149 0.2666667 0.2678161 0.2689655 0.2689655 0.2678161 0.2689655 0.2655172 0.2655172 0.2678161 0.2666667 0.2655172 0.2666667 0.2655172 0.2666667 0.2655172 0.2678161 0.2655172 0.2666667 0.2666667 0.2689655 0.2655172 0.2643678 0.2666667 0.2666667 0.2655172 0.2666667 0.2689655 0.2678161 0.2678161 0.2655172 0.2689655 0.2689655 0.2701149 0.2689655 0.2666667 0.2678161 0.2666667 0.2666667 0.2678161 0.2678161 0.2666667 0.2678161 0.2666667 0.2678161 0.2666667 0.2678161 0.2678161 0.2666667 0.2666667 0.2678161 0.2701149 0.2701149 0.2712644 0.2724138 0.2678161 0.2689655 0.2712644 0.2701149 0.2712644 0.2712644 0.2712644 0.2701149 0.2712644 0.2689655 0.2701149 0.2701149 0.2724138 0.2724138 0.2712644 0.2712644 0.2712644 0.2712644 0.2724138 0.2678161 0.2678161 0.2689655 0.2655172 0.2678161 0.2689655 0.2689655 0.2701149 0.2701149 0.2701149 0.2724138 0.2689655 0.2689655 0.2609195 0.2655172 0.2712644 0.2712644 0.2701149 0.2724138 0.2701149 0.2712644 0.2701149 0.2701149 0.2712468 0.2715504 0.2984439 -9999 -9999 -9999 -9999 -9999 -9999 -9999 -9999 -9999 -9999 -9999 -9999 -9999 -9999 -9999 -9999 -9999 -9999 -9999 0.316822 0.3168796 0.3161809 -9999 -9999 -9999 -9999 -9999 -9999 -9999 -9999 -9999 -9999 -9999 -9999 -9999 -9999 -9999 -9999 -9999 -9999 -9999 -9999 -9999 -9999 -9999 -9999 -9999 -9999 -9999 -9999 -9999 -9999 -9999 -9999 -9999 -9999 -9999 -9999 -9999 -9999 -9999 -9999 -9999 -9999 -9999 -9999 -9999 -9999 -9999
-9999 -9999 -9999 -9999 -9999 -9999 -9999 -9999 -9999 -9999 -9999 -9999 -9999 -9999 -9999 -9999 -9999 -9999 -9999 -9999 -9999 -9999 -9999 -9999 -9999 -9999 -9999 -9999 -9999 -9999 -9999 -9999 -9999 -9999 -9999 -9999 -9999 -9999 -9999 -9999 -9999 -9999 0.297025 0.295878 0.2955189 0.2969944 0.2986236 0.2958338 0.2966953 0.2973924 0.2966511 0.2967003 0.2966669 0.2970523 0.2982424 0.2968746 0.2980884 0.2964263 0.2945527 0.2954901 0.2963724 0.2962979 0.2980067 0.2962674 0.2956694 0.296187 0.2962918 0.2963312 0.2960049 0.2969521 0.2950907 0.2960865 0.2945571 0.2963064 0.2969061 0.2950509 0.2943687 0.2929256 -9999 -9999 -9999 -9999 -9999 -9999 -9999 -9999 -9999 -9999 -9999 -9999 -9999 -9999 -9999 0.2701149 -9999 -9999 -9999 -9999 -9999 -9999 -9999 -9999 -9999 -9999 -9999 -9999 -9999 -9999 -9999 -9999 -9999 -9999 -9999 0.2724138 0.2712644 0.2724138 0.2712644 0.2712644 0.2701149 0.2724138 0.2712644 0.2678161 0.2689655 0.2701149 0.2689655 0.2712644 0.2701149 0.2678161 0.2689655 0.2689655 0.2689655 0.2655172 0.2666667 0.2678161 0.2678161 0.2666667 0.2655172 0.2666667 0.2666667 0.2655172 0.2689655 0.2666667 0.2655172 0.2655172 0.2678161 0.2655172 0.2666667 0.2655172 0.2666667 0.2678161 0.2678161 0.2655172 0.2655172 0.2666667 0.2666667 0.2643678 0.2655172 0.2643678 0.2666667 0.2666667 0.2666667 0.2666667 0.2666667 0.2678161 0.262069 0.2689655 0.2689655 0.2701149 0.2678161 0.2689655 0.2678161 0.2678161 0.2666667 0.2666667 0.2655172 0.2678161 0.2666667 0.2678161 0.2678161 0.2689655 0.2655172 0.2678161 0.2689655 0.2689655 0.2689655 0.2689655 0.2701149 0.2666667 0.2689655 0.2701149 0.2689655 0.2689655 0.2678161 0.2701149 0.2689655 0.2701149 0.2701149 0.2701149 0.2678161 0.2701149 0.2701149 0.2701149 0.2712644 0.2701149 0.2689655 0.2689655 0.2712644 0.2678161 0.2689655 0.2666667 0.2689655 0.2701149 0.2678161 0.2678161 0.2712644 0.2701149 0.2701149 0.2701149 0.2689655 0.2689655 0.2724138 0.2655172 0.2712644 0.2701149 0.2724138 0.2712644 0.2701149 0.2701149 0.2712644 0.2735632 0.2712644 0.2706741 0.2729948 0.2984439 -9999 -9999 -9999 -9999 -9999 -9999 -9999 -9999 -9999 -9999 -9999 -9999 -9999 -9999 -9999 -9999 -9999 -9999 -9999 0.3164451 -9999 -9999 -9999 -9999 -9999 -9999 -9999 -9999 -9999 -9999 -9999 -9999 -9999 -9999 -9999 -9999 -9999 -9999 -9999 -9999 -9999 -9999 -9999 -9999 -9999 -9999 -9999 -9999 -9999 -9999 -9999 -9999 -9999 -9999 -9999 -9999 -9999 -9999 -9999 -9999 -9999 -9999 -9999 -9999 -9999 -9999 -9999 -9999 -9999
-9999 -9999 -9999 -9999 -9999 -9999 -9999 -9999 -9999 -9999 -9999 -9999 -9999 -9999 -9999 -9999 -9999 -9999 -9999 -9999 -9999 -9999 -9999 -9999 -9999 -9999 -9999 -9999 -9999 -9999 -9999 -9999 -9999 -9999 -9999 -9999 -9999 -9999 -9999 -9999 -9999 -9999 0.297612 0.2975309 0.2963558 0.2966224 0.2968797 0.2964246 0.2974951 0.2962752 0.2973333 0.2966598 0.2968068 0.2986135 0.2969654 0.296711 0.2966469 0.2959565 0.2955616 0.2955568 0.2955651 0.2963583 0.2978382 0.2964175 0.2955189 0.295596 0.2963666 0.2965351 0.2947631 0.2940973 0.2966399 0.2956263 0.2973497 0.2966457 0.2967868 0.295475 0.2930432 0.2909125 -9999 -9999 -9999 -9999 -9999 -9999 -9999 -9999 -9999 -9999 -9999 -9999 -9999 -9999 -9999 -9999 -9999 -9999 -9999 -9999 -9999 -9999 -9999 -9999 -9999 -9999 -9999 -9999 -9999 -9999 -9999 -9999 -9999 -9999 -9999 -9999 0.2701149 0.2701149 0.2724138 0.2689655 0.2701149 0.2701149 0.2689655 0.2666667 0.2712644 0.2747127 0.2758621 0.2678161 0.2678161 0.2689655 0.2689655 0.2678161 0.2678161 0.2689655 0.2678161 0.2678161 0.2701149 0.2666667 0.2678161 0.2666667 0.2655172 0.2666667 0.2643678 0.2655172 0.2678161 0.2678161 0.2666667 0.2655172 0.2655172 0.2678161 0.2666667 0.2678161 0.2643678 0.2643678 0.2655172 0.2643678 0.2655172 0.2655172 0.2643678 0.2632184 0.2689655 0.2701149 0.2666667 0.2678161 0.2678161 0.2643678 0.262069 0.2666667 0.2666667 0.2701149 0.2689655 0.2689655 0.2666667 0.2678161 0.2643678 0.2655172 0.2666667 0.2655172 0.2643678 0.2678161 0.2678161 0.2666667 0.2666667 0.2678161 0.2689655 0.2689655 0.2689655 0.2689655 0.2701149 0.2666667 0.2689655 0.2701149 0.2689655 0.2689655 0.2678161 0.2701149 0.2701149 0.2689655 0.2712644 0.2701149 0.2689655 0.2701149 0.2712644 0.2689655 0.2689655 0.2701149 0.2689655 0.2689655 0.2701149 0.2666667 0.2678161 0.2678161 0.2666667 0.2666667 0.2701149 0.2701149 0.2724138 0.2701149 0.2701149 0.2701149 0.2678161 0.2712644 0.2701149 0.2724138 0.2712644 0.2678161 0.2712644 0.2712644 0.2712644 0.2689655 0.2701149 0.2712644 0.2712644 0.2724138 0.2851989 -9999 -9999 -9999 -9999 -9999 -9999 -9999 -9999 -9999 -9999 -9999 -9999 -9999 -9999 -9999 -9999 -9999 -9999 -9999 -9999 -9999 -9999 -9999 -9999 -9999 -9999 -9999 -9999 -9999 -9999 -9999 -9999 -9999 -9999 -9999 -9999 -9999 -9999 -9999 -9999 -9999 -9999 -9999 -9999 -9999 -9999 -9999 -9999 -9999 -9999 -9999 -9999 -9999 -9999 -9999 -9999 -9999 -9999 -9999 -9999 -9999 -9999 -9999 -9999 -9999 -9999 -9999 -9999 -9999 -9999
-9999 -9999 -9999 -9999 -9999 -9999 -9999 -9999 -9999 -9999 -9999 -9999 -9999 -9999 -9999 -9999 -9999 -9999 -9999 -9999 -9999 -9999 -9999 -9999 -9999 -9999 -9999 -9999 -9999 -9999 -9999 -9999 -9999 -9999 -9999 -9999 -9999 -9999 -9999 -9999 -9999 0.2976897 0.297893 0.298828 0.2976673 0.2960362 0.2961967 0.2961149 0.2966589 0.297089 0.2974101 0.2966991 0.2964235 0.2989783 0.2978318 0.2973154 0.2968933 0.2961958 0.295581 0.2960707 0.2957115 0.2965311 0.2999321 0.2956578 0.2957978 0.2964479 0.2962609 0.2957985 0.2945547 0.2955855 0.2966399 0.2957601 0.2967299 0.2979227 0.2959003 0.2966124 -9999 -9999 -9999 -9999 -9999 -9999 -9999 -9999 -9999 -9999 -9999 -9999 -9999 -9999 -9999 -9999 -9999 -9999 -9999 -9999 -9999 -9999 -9999 -9999 -9999 -9999 -9999 -9999 -9999 -9999 -9999 -9999 -9999 -9999 -9999 -9999 -9999 -9999 -9999 0.2712644 0.2712644 0.2712644 0.2678161 0.2689655 0.2701149 0.2689655 0.2701149 0.2770115 0.2689655 0.2666667 0.2666667 0.2689655 0.2689655 0.2666667 0.2689655 0.2689655 0.2689655 0.2689655 0.2689655 0.2666667 0.2666667 0.2666667 0.2678161 0.2666667 0.2643678 0.2689655 0.2678161 0.2689655 0.2678161 0.2666667 0.2666667 0.2666667 0.2666667 0.2655172 0.2655172 0.2643678 0.2632184 0.2643678 0.2655172 0.2678161 0.2666667 0.2678161 0.2655172 0.2666667 0.2655172 0.2655172 0.2643678 0.2632184 0.2632184 0.2701149 0.2678161 0.2689655 0.2678161 0.2678161 0.2655172 0.2655172 0.2689655 0.2678161 0.2666667 0.2655172 0.2666667 0.2678161 0.2666667 0.2678161 0.2655172 0.2689655 0.2689655 0.2678161 0.2689655 0.2678161 0.2701149 0.2712644 0.2689655 0.2689655 0.2701149 0.2689655 0.2689655 0.2701149 0.2712644 0.2689655 0.2678161 0.2701149 0.2666667 0.2724138 0.2666667 0.2735632 0.2689655 0.2701149 0.2678161 0.2724138 0.2701149 0.2678161 0.2689655 0.2678161 0.2678161 0.2678161 0.2701149 0.2689655 0.2701149 0.2689655 0.2689655 0.2701149 0.2666667 0.2701149 0.2655172 0.2724138 0.2689655 0.2678161 0.2712644 0.2712644 0.2712644 0.2701149 0.2701149 0.2712644 0.2689655 0.2724138 0.2888672 -9999 -9999 -9999 -9999 -9999 -9999 -9999 -9999 -9999 -9999 -9999 -9999 -9999 -9999 -9999 -9999 -9999 -9999 -9999 -9999 -9999 -9999 -9999 -9999 -9999 -9999 -9999 -9999 -9999 -9999 -9999 -9999 -9999 -9999 -9999 -9999 -9999 -9999 -9999 -9999 -9999 -9999 -9999 -9999 -9999 -9999 -9999 -9999 -9999 -9999 -9999 -9999 -9999 -9999 -9999 -9999 -9999 -9999 -9999 -9999 -9999 -9999 -9999 -9999 -9999 -9999 -9999 -9999 -9999 -9999
-9999 -9999 -9999 -9999 -9999 -9999 -9999 -9999 -9999 -9999 -9999 -9999 -9999 -9999 -9999 -9999 -9999 -9999 -9999 -9999 -9999 -9999 -9999 -9999 -9999 -9999 -9999 -9999 -9999 -9999 -9999 -9999 -9999 -9999 -9999 -9999 -9999 -9999 -9999 -9999 -9999 0.2985782 0.2973159 0.2994229 0.2984485 0.296287 0.2954738 0.2959005 0.2980346 0.2984255 0.2973601 0.2967966 0.2961861 0.2978202 0.2976028 0.2961959 0.2967864 0.2959602 0.2963939 0.2953804 0.294743 0.2969784 0.2954661 0.2951525 0.2932796 0.29408 0.2938629 0.2969896 0.2953641 0.2957066 0.2973568 0.2956236 0.2964189 0.2966344 0.2953579 -9999 -9999 -9999 -9999 -9999 -9999 -9999 -9999 -9999 -9999 -9999 -9999 -9999 -9999 -9999 -9999 -9999 -9999 -9999 -9999 -9999 -9999 -9999 -9999 -9999 -9999 -9999 -9999 -9999 -9999 -9999 -9999 -9999 -9999 -9999 -9999 -9999 -9999 -9999 0.2689655 0.2689655 0.2712644 0.2689655 0.2678161 0.2701149 0.2712644 0.2689655 0.2724138 0.2678161 0.2666667 0.2655172 0.2689655 0.2666667 0.2689655 0.2666667 0.2689655 0.2689655 0.2678161 0.2701149 0.2666667 0.2655172 0.2655172 0.2655172 0.2655172 0.2666667 0.2655172 0.2666667 0.2678161 0.2666667 0.2689655 0.2678161 0.2655172 0.2666667 0.2666667 0.2655172 0.2655172 0.2678161 0.2632184 0.2655172 0.2678161 0.2666667 0.2655172 0.2655172 0.2666667 0.2678161 0.2666667 0.2655172 0.2632184 0.2632184 0.2643678 0.2678161 0.2678161 0.2689655 0.2678161 0.2666667 0.2678161 0.2655172 0.2655172 0.2666667 0.2678161 0.2689655 0.2666667 0.2666667 0.2678161 0.2689655 0.2655172 0.2666667 0.2678161 0.2666667 0.2701149 0.2689655 0.2701149 0.2701149 0.2701149 0.2678161 0.2701149 0.2701149 0.2689655 0.2724138 0.2678161 0.2712644 0.2712644 0.2689655 0.2701149 0.2678161 0.2701149 0.2712644 0.2689655 0.2689655 0.2701149 0.2724138 0.2689655 0.2666667 0.2689655 0.2701149 0.2689655 0.2689655 0.2678161 0.2689655 0.2678161 0.2712644 0.2701149 0.2701149 0.2770115 0.2678161 0.2689655 0.2643678 0.2689655 0.2701149 0.2701149 0.2678161 0.2701149 0.2678161 0.2689655 0.2689655 0.2701149 0.2712644 -9999 -9999 -9999 -9999 -9999 -9999 -9999 -9999 -9999 -9999 -9999 -9999 -9999 -9999 -9999 -9999 -9999 -9999 -9999 -9999 -9999 -9999 -9999 -9999 -9999 -9999 -9999 -9999 -9999 -9999 -9999 -9999 -9999 -9999 -9999 -9999 -9999 -9999 -9999 -9999 -9999 -9999 -9999 -9999 -9999 -9999 -9999 -9999 -9999 -9999 -9999 -9999 -9999 -9999 -9999 -9999 -9999 -9999 -9999 -9999 -9999 -9999 -9999 -9999 -9999 -9999 -9999 -9999 -9999 -9999 -9999
-9999 -9999 -9999 -9999 -9999 -9999 -9999 -9999 -9999 -9999 -9999 -9999 -9999 -9999 -9999 -9999 -9999 -9999 -9999 -9999 -9999 -9999 -9999 -9999 -9999 -9999 -9999 -9999 -9999 -9999 -9999 -9999 -9999 -9999 -9999 -9999 -9999 -9999 -9999 -9999 0.2967763 0.2958594 0.2982645 0.2991323 0.2975349 0.2972941 0.2962282 0.2956161 0.2977504 0.2965949 0.296511 0.2974319 0.2980811 0.2987917 0.297078 0.2959109 0.2960394 0.2966473 0.2960191 0.2955003 0.2940021 0.2957843 0.2957142 0.2932997 0.2932997 0.2957152 0.2949247 0.2956873 0.2953154 0.2965133 0.2983291 0.2959884 0.2961499 -9999 -9999 -9999 -9999 -9999 -9999 -9999 -9999 -9999 -9999 -9999 -9999 -9999 -9999 -9999 -9999 -9999 -9999 -9999 -9999 -9999 -9999 -9999 -9999 -9999 -9999 -9999 -9999 -9999 -9999 -9999 -9999 -9999 -9999 -9999 -9999 -9999 -9999 -9999 -9999 -9999 0.2712644 0.2701149 0.2712644 0.2689655 0.2689655 0.2655172 0.2678161 0.2735632 0.2666667 0.2666667 0.2666667 0.2678161 0.2689655 0.2678161 0.2678161 0.2689655 0.2689655 0.2689655 0.2666667 0.2712644 0.2678161 0.2689655 0.2678161 0.2643678 0.2666667 0.2678161 0.2689655 0.2678161 0.2655172 0.2655172 0.2666667 0.2678161 0.2678161 0.2666667 0.2666667 0.2655172 0.2643678 0.2678161 0.2632184 0.2666667 0.2655172 0.2643678 0.2689655 0.2678161 0.2666667 0.2666667 0.2655172 0.2643678 0.2655172 0.2632184 0.2666667 0.2701149 0.2701149 0.2689655 0.2632184 0.2666667 0.2666667 0.2666667 0.2678161 0.2655172 0.2666667 0.2655172 0.2678161 0.2666667 0.2666667 0.2701149 0.2666667 0.2666667 0.2678161 0.2689655 0.2678161 0.2701149 0.2689655 0.2701149 0.2678161 0.2678161 0.2712644 0.2701149 0.2701149 0.2655172 0.2724138 0.2701149 0.2689655 0.2701149 0.2689655 0.2666667 0.2689655 0.2724138 0.2712644 0.2678161 0.2689655 0.2689655 0.2701149 0.2689655 0.2689655 0.2689655 0.2689655 0.2666667 0.2689655 0.2678161 0.2689655 0.2735632 0.2701149 0.2666667 0.2701149 0.2678161 0.2666667 0.2712644 0.2712644 0.2689655 0.2701149 0.2701149 0.2701149 0.2689655 0.2678161 0.2712644 0.2689655 0.2724138 -9999 -9999 -9999 -9999 -9999 -9999 -9999 -9999 -9999 -9999 -9999 -9999 -9999 -9999 -9999 -9999 -9999 -9999 -9999 -9999 -9999 -9999 -9999 -9999 -9999 -9999 -9999 -9999 -9999 -9999 -9999 -9999 -9999 -9999 -9999 -9999 -9999 -9999 -9999 -9999 -9999 -9999 -9999 -9999 -9999 -9999 -9999 -9999 -9999 -9999 -9999 -9999 -9999 -9999 -9999 -9999 -9999 -9999 -9999 -9999 -9999 -9999 -9999 -9999 -9999 -9999 -9999 -9999 -9999 -9999 -9999
-9999 -9999 -9999 -9999 -9999 -9999 -9999 -9999 -9999 -9999 -9999 -9999 -9999 -9999 -9999 -9999 -9999 -9999 -9999 -9999 -9999 -9999 -9999 -9999 -9999 -9999 -9999 -9999 -9999 -9999 -9999 -9999 -9999 -9999 -9999 -9999 -9999 -9999 -9999 0.294711 0.2954826 0.2954952 0.2970563 0.296063 0.2957172 0.2960584 0.2968374 0.296786 0.2967103 0.2961237 0.2962911 0.2973374 0.2995799 0.301241 0.2965669 0.2963323 0.2953588 0.2966434 0.2970608 0.2960197 0.2956729 0.2940144 0.2957336 0.2955245 0.294977 0.2951865 0.2952174 0.2956873 0.2954058 0.2964836 -9999 -9999 -9999 -9999 -9999 -9999 -9999 -9999 -9999 -9999 -9999 -9999 -9999 -9999 -9999 -9999 -9999 -9999 -9999 -9999 -9999 -9999 -9999 -9999 -9999 -9999 -9999 -9999 -9999 -9999 -9999 -9999 -9999 -9999 -9999 -9999 -9999 -9999 -9999 -9999 -9999 -9999 -9999 -9999 0.2724138 0.2712644 0.2701149 0.2712644 0.2701149 0.2678161 0.2678161 0.2770115 0.2689655 0.2666667 0.2678161 0.2678161 0.2666667 0.2678161 0.2666667 0.2666667 0.2666667 0.2666667 0.2666667 0.2666667 0.2678161 0.2689655 0.2689655 0.2655172 0.2666667 0.2666667 0.2689655 0.2666667 0.2689655 0.2643678 0.2701149 0.2701149 0.2655172 0.2666667 0.2678161 0.2666667 0.2643678 0.2643678 0.2643678 0.2666667 0.2666667 0.2678161 0.2678161 0.2678161 0.2678161 0.2678161 0.2632184 0.2666667 0.2678161 0.2655172 0.2655172 0.2678161 0.2678161 0.2655172 0.262069 0.2643678 0.2678161 0.2666667 0.2689655 0.2678161 0.2666667 0.2689655 0.2678161 0.2655172 0.2666667 0.2666667 0.2666667 0.2655172 0.2678161 0.2701149 0.2678161 0.2678161 0.2666667 0.2701149 0.2689655 0.2678161 0.2689655 0.2689655 0.2712644 0.2678161 0.2712644 0.2701149 0.2689655 0.2701149 0.2712644 0.2701149 0.2712644 0.2724138 0.2689655 0.2689655 0.2712644 0.2701149 0.2701149 0.2678161 0.2689655 0.2689655 0.2689655 0.2678161 0.2678161 0.2666667 0.2701149 0.2666667 0.2689655 0.2666667 0.2666667 0.2678161 0.2689655 0.2712644 0.2689655 0.2712644 0.2712644 0.2712644 0.2712644 0.2689655 0.2701149 0.2712644 0.2678161 -9999 -9999 -9999 -9999 -9999 -9999 -9999 -9999 -9999 -9999 -9999 -9999 -9999 -9999 -9999 -9999 -9999 -9999 -9999 -9999 -9999 -9999 -9999 -9999 -9999 -9999 -9999 -9999 -9999 -9999 -9999 -9999 -9999 -9999 -9999 -9999 -9999 -9999 -9999 -9999 -9999 -9999 -9999 -9999 -9999 -9999 -9999 -9999 -9999 -9999 -9999 -9999 -9999 -9999 -9999 -9999 -9999 -9999 -9999 -9999 -9999 -9999 -9999 -9999 -9999 -9999 -9999 -9999 -9999 -9999 -9999 -9999
-9999 -9999 -9999 -9999 -9999 -9999 -9999 -9999 -9999 -9999 -9999 -9999 -9999 -9999 -9999 -9999 -9999 -9999 -9999 -9999 -9999 -9999 -9999 -9999 -9999 -9999 -9999 -9999 -9999 -9999 -9999 -9999 -9999 -9999 -9999 -9999 -9999 -9999 -9999 -9999 0.2946519 0.2962079 0.2979839 0.294325 0.2936428 0.2932806 0.2962712 0.2959442 0.2959105 0.2959741 0.2970329 0.2975416 0.3002834 0.3004394 0.2962931 0.2957942 0.2953588 0.2962272 0.2955581 0.2958592 0.2942474 0.2953867 0.2970217 0.2959175 0.2953949 0.2955388 0.2950825 0.2971484 0.2940265 -9999 -9999 -9999 -9999 -9999 -9999 -9999 -9999 -9999 -9999 -9999 -9999 -9999 -9999 -9999 -9999 -9999 -9999 -9999 -9999 -9999 -9999 -9999 -9999 -9999 -9999 -9999 -9999 -9999 -9999 -9999 -9999 -9999 -9999 -9999 -9999 -9999 -9999 -9999 -9999 -9999 -9999 -9999 -9999 -9999 -9999 0.2701149 0.2724138 0.2701149 0.2735632 0.2678161 0.2666667 0.2689655 0.2689655 0.2678161 0.2655172 0.2655172 0.2666667 0.2666667 0.2666667 0.2666667 0.2689655 0.2678161 0.2689655 0.2689655 0.2655172 0.2678161 0.2678161 0.2655172 0.2655172 0.2655172 0.2666667 0.2701149 0.2678161 0.2666667 0.2712644 0.2678161 0.2689655 0.2678161 0.2689655 0.2666667 0.2643678 0.2632184 0.2655172 0.2655172 0.2666667 0.2666667 0.2655172 0.2655172 0.2678161 0.2655172 0.2655172 0.2655172 0.2666667 0.2632184 0.2643678 0.2712644 0.2678161 0.2666667 0.2678161 0.2678161 0.2678161 0.2678161 0.2643678 0.2666667 0.2666667 0.2678161 0.2678161 0.2666667 0.2712644 0.2678161 0.2678161 0.2678161 0.2678161 0.2701149 0.2678161 0.2678161 0.2678161 0.2678161 0.2666667 0.2689655 0.2678161 0.2689655 0.2724138 0.2712644 0.2701149 0.2678161 0.2689655 0.2701149 0.2678161 0.2701149 0.2689655 0.2689655 0.2678161 0.2689655 0.2701149 0.2712644 0.2701149 0.2689655 0.2689655 0.2678161 0.2701149 0.2666667 0.2689655 0.2701149 0.2712644 0.2678161 0.2678161 0.2666667 0.2666667 0.2701149 0.2724138 0.2712644 0.2701149 0.2712644 0.2724138 0.2701149 0.2689655 0.2712644 0.2689655 0.2712644 -9999 -9999 -9999 -9999 -9999 -9999 -9999 -9999 -9999 -9999 -9999 -9999 -9999 -9999 -9999 -9999 -9999 -9999 -9999 -9999 -9999 -9999 -9999 -9999 -9999 -9999 -9999 -9999 -9999 -9999 -9999 -9999 -9999 -9999 -9999 -9999 -9999 -9999 -9999 -9999 -9999 -9999 -9999 -9999 -9999 -9999 -9999 -9999 -9999 -9999 -9999 -9999 -9999 -9999 -9999 -9999 -9999 -9999 -9999 -9999 -9999 -9999 -9999 -9999 -9999 -9999 -9999 -9999 -9999 -9999 -9999 -9999 -9999
